# .PCD v.7 - Point Cloud Data file format
VERSION .7
FIELDS x y z rgb
SIZE 4 4 4 4
TYPE F F F F
COUNT 1 1 1 1
WIDTH 617
HEIGHT 1
POINTS 617
DATA ascii
71.139061 4.897012 274.600006 -60516407498512249788474356229134614528.000000
70.989716 4.850646 272.000000 -62854289865091565057396272069494177792.000000
71.435066 4.845295 271.700012 -64858572229112418564102709507514171392.000000
73.177017 4.927329 276.299988 -64867719595843665467463909717844164608.000000
75.843719 5.069994 284.299988 -64203125880360811182682430134955278336.000000
79.535454 5.278644 296.000000 -63868197379973310236054183187656474624.000000
82.758087 5.453409 305.799988 -64866396168617027195968747159697752064.000000
83.892570 5.489076 307.799988 -66865410176743332181282564299196203008.000000
84.019180 5.458759 306.100006 -67196393748462922878013353506119876608.000000
83.531128 5.389209 302.200012 -64188669592915808454587761731601170432.000000
82.360039 5.276860 295.899994 -59518107297820514570207672520836907008.000000
80.828339 5.143111 288.399994 -56844023709651069212338407043160342528.000000
80.368286 5.078911 284.799988 -56176808492726942949154632278042738688.000000
80.462593 5.050378 283.200012 -56176818633931744774989844251668381696.000000
80.922592 5.045028 282.899994 -56509156056492379220721431937615396864.000000
81.122261 5.023628 281.700012 -55844567411611925848857558341539332096.000000
81.404274 5.007578 280.799988 -55845890838838564120352720899685744640.000000
82.062195 5.014711 281.200012 -58513484055934840943686323256950784000.000000
82.839157 5.028978 282.000000 -61519879713652916182699146486510256128.000000
84.683662 5.107444 286.399994 -67859765448767157149651790267118780416.000000
87.199875 5.225144 293.000000 -73200123897408641972277101530726793216.000000
90.340599 5.378510 301.600006 -78872794415598756676045970546217713664.000000
92.429199 5.467676 306.600006 -81210671711575671032050280399764455424.000000
92.989777 5.465893 306.500000 -80212437428715147681712474520033427456.000000
92.969856 5.430226 304.500000 -77544854352823672684214084136394031104.000000
93.464554 5.424876 304.200012 -75543198560846492068827547867415576576.000000
94.050835 5.424876 304.200012 -77881065715618604598996645747336675328.000000
94.917114 5.440926 305.100006 -80883557009487976891452859131023589376.000000
95.599045 5.446276 305.399994 -81883084295960733035780191648024100864.000000
95.872696 5.428443 304.399994 -82550304583487260211881572399954526208.000000
96.395988 5.424876 304.200012 -83216216655594351855240608554177003520.000000
96.982277 5.424876 304.200012 -83213610365960282615591131332386750464.000000
97.536491 5.423093 304.100006 -82879995151594618114622834969608716288.000000
98.122589 5.423093 304.100006 -82876095858348316080983831110548979712.000000
98.416550 5.407043 303.200012 -80865343405663897691412154499368747008.000000
98.870300 5.399909 302.799988 -79528291470374373186642309786904821760.000000
99.848030 5.421309 304.000000 -78526142682460345063912682087675592704.000000
100.466965 5.423093 304.100006 -77527883046587817148986846273880457216.000000
101.086296 5.424876 304.200012 -76527032332888422733164351198733533184.000000
101.672577 5.424876 304.200012 -76528325336500655527153877836003016704.000000
102.258865 5.424876 304.200012 -79863123629316256787836042984760016896.000000
102.845154 5.424876 304.200012 -82533307924239400112066304603376844800.000000
103.431442 5.424876 304.200012 -81864789562498239229057791227364114432.000000
104.017731 5.424876 304.200012 -81866092707315273848882529838259240960.000000
104.604019 5.424876 304.200012 -81197564204369311140038804488620867584.000000
105.190308 5.424876 304.200012 -79198479207809393373878503533742915584.000000
105.741821 5.423093 304.100006 -78198916427119830839127929109052653568.000000
106.327911 5.423093 304.100006 -76532133358903741128275973932431966208.000000
106.773376 5.415959 303.700012 -73528333849614933303077415951037104128.000000
107.181953 5.407043 303.200012 -66518667172761704136632368078023294976.000000
106.984367 5.367810 301.000000 -56840139628211969917452221144539070464.000000
106.921249 5.335710 299.200012 -53171761615247510546225001540693786624.000000
107.390106 5.330360 298.899994 -53842906549032344320553416085748056064.000000
107.930069 5.328577 298.799988 -52848596912430127568442643999140872192.000000
108.033859 5.305394 297.500000 -51519384128452414434291654899298992128.000000
108.278679 5.289343 296.600006 -52190529062237248208620069444353261568.000000
108.813614 5.287560 296.500000 -49526860491399277983513500880212066304.000000
109.385063 5.287560 296.500000 -52198347931139455927568501109724020736.000000
109.993599 5.289343 296.600006 -66544877116572023007737713913497649152.000000
110.677071 5.294693 296.899994 -75218725642609673558302845728154714112.000000
111.848816 5.323226 298.500000 -65875020115797021114481220018900041728.000000
113.817650 5.389209 302.200012 -60201041382187470877970006405701173248.000000
116.027878 5.465893 306.500000 -58862671090273709014622605121903656960.000000
120.765884 5.660275 317.399994 -54523127861114812217396547025752817664.000000
119.465553 5.571109 312.399994 -60529398381863388683380894443583307776.000000
122.834885 5.699509 319.600006 -56532577168982195987143485026037923840.000000
127.892914 5.904591 331.100006 -50865119230060219762673570454127509504.000000
128.880417 5.920640 332.000000 -50528928149674891499561432790436151296.000000
129.715347 5.929557 332.500000 -50528943361482094238314250750874615808.000000
129.728897 5.901024 330.899994 -49526819926580070680172652985709494272.000000
130.445450 5.904591 331.100006 -54198654942877993706871844886491955200.000000
136.190735 6.134639 344.000000 -63872035825990801314681915204962353152.000000
154.994812 6.947836 389.600006 -68877460703642384277761373534458740736.000000
158.903763 7.088719 397.500000 -70213173999898067772283237728337788928.000000
166.337860 7.384751 414.100006 -71547604433746320298650787258572996608.000000
173.028687 7.645116 428.700012 -71548897437358553092640313895842480128.000000
175.152664 7.702183 431.899994 -71546306359531686591743654634490691584.000000
189.798203 8.306730 465.799988 -72545848857811645474823805111929667584.000000
192.538223 8.386980 470.299988 -73545396426694005270821561576181465088.000000
192.663116 8.353096 468.399994 -73545406567898807096656773549807108096.000000
57.231403 4.872396 246.600006 -56178213049591995827331490625194295296.000000
57.659878 4.868444 246.399994 -58177257481332706290150943685569675264.000000
58.134769 4.868444 246.399994 -60843522200599943929071777497875480576.000000
58.585873 4.866468 246.300003 -64178305281608342451001124686194016256.000000
59.012608 4.862516 246.100006 -67848011792401841006641112834998534144.000000
59.366062 4.852637 245.600006 -69852268803410689948759520338954420224.000000
60.180511 4.880299 247.000000 -70187166880183785417882131365376294912.000000
61.270489 4.929695 249.500000 -68854024379345364772586502485597749248.000000
62.766113 5.010704 253.600006 -67518275588872874887641396384028950528.000000
64.901100 5.141109 260.200012 -63851160155906242832898067496576221184.000000
67.765327 5.326837 269.600006 -59515526361198449895146225233110761472.000000
70.437828 5.494782 278.100006 -56179424923565814014639321473458634752.000000
73.117569 5.660751 286.500000 -53178241845115877254925452687479668736.000000
74.158310 5.698293 288.399994 -52178724699847922936433332144104800256.000000
74.999115 5.720026 289.500000 -53846775418664240876686784023930863616.000000
74.721901 5.656800 286.299988 -56847973708921380375153470770348294144.000000
74.879303 5.627162 284.799988 -58521247148210638620541089067380506624.000000
76.990799 5.743736 290.700012 -56859757788901101995669784123345469440.000000
79.685257 5.901803 298.700012 -55862867215676820568497564749012140032.000000
82.732986 6.083579 307.899994 -56197760221847515124702569788621193216.000000
83.786484 6.117168 309.600006 -58529096440727251816995156653628194816.000000
84.219635 6.105313 309.000000 -60529413593670591422133712404021772288.000000
84.485802 6.081603 307.799988 -60861690169002414912854028248214929408.000000
84.553841 6.044063 305.899994 -58187586298423365903314338823287078912.000000
84.892906 6.026280 305.000000 -54515248144983793543436843518628200448.000000
81.809273 5.767447 291.899994 -56180692574166042244040818176664010752.000000
80.481163 5.635066 285.200012 -56176803422124542036237026291229917184.000000
80.831947 5.621235 284.500000 -56176818633931744774989844251668381696.000000
81.094223 5.601477 283.500000 -56509156056492379220721431937615396864.000000
81.381439 5.583694 282.600006 -56175586477548322936011589456152756224.000000
81.694176 5.567888 281.799988 -56844125121699087470690526779416772608.000000
82.208107 5.565912 281.700012 -59511723409397765206941735123494633472.000000
83.162285 5.593574 283.100006 -62518119067115840445954558353054105600.000000
85.008911 5.680510 287.500000 -67861073664186592682394134864826728448.000000
87.914139 5.836600 295.399994 -72203202900569955067599246235516534784.000000
90.969635 6.000595 303.700012 -77208658201835943508184340485889851392.000000
92.338768 6.051966 306.299988 -79881438645188354246228867352671289344.000000
92.989777 6.055918 306.500000 -79550429720456758984910048211683508224.000000
93.030922 6.020352 304.700012 -77551370076908845783337777190869663744.000000
93.464554 6.010473 304.200012 -75883319358092527843084325311043600384.000000
94.050835 6.010473 304.200012 -77552673221725880403162515801764790272.000000
94.948227 6.030232 305.200012 -81222374661916978045884897963756486656.000000
95.567749 6.032207 305.299988 -82559411385399299811901924715781947392.000000
95.872696 6.014425 304.399994 -83224030453894158661271434232734941184.000000
96.395988 6.010473 304.200012 -82221896877787333277294624493944176640.000000
96.982277 6.010473 304.200012 -81553368374841370568450899144305803264.000000
97.536491 6.008498 304.100006 -81553368374841370568450899144305803264.000000
98.122589 6.008498 304.100006 -82547698293853190972232095178164273152.000000
98.546387 5.998619 303.600006 -82872211776909216786097645211927707648.000000
98.837646 5.980836 302.700012 -80865338335061496778494548512555925504.000000
99.815178 6.004546 303.899994 -78861061041643044184705717061348753408.000000
100.466965 6.008498 304.100006 -77864104550587550889604619858448744448.000000
101.053062 6.008498 304.100006 -78862308409833668762436789817302843392.000000
101.672577 6.010473 304.200012 -80200643207530624235360949193410609152.000000
102.258865 6.010473 304.200012 -83866455495680221670279539469968211968.000000
102.811348 6.008498 304.100006 -86006229426455869248335550533391613952.000000
103.431442 6.010473 304.200012 -82866933279809866438869812939780521984.000000
104.017731 6.010473 304.200012 -81867405993337110294542480422780010496.000000
104.604019 6.010473 304.200012 -81198872419788746672781149086328815616.000000
105.190308 6.010473 304.200012 -80534227998281883258823609635311714304.000000
105.741821 6.008498 304.100006 -81202710865806237751408881103634694144.000000
106.327911 6.008498 304.100006 -78868707510063620864455545175083581440.000000
106.316338 5.974909 302.399994 -73529631923829567009984548575119409152.000000
106.757751 5.967005 302.000000 -65520437960503581699212168185105088512.000000
106.842194 5.939344 300.600006 -57175052916792268125327650131399409664.000000
106.885506 5.909706 299.100006 -53506679974430209667018036514366947328.000000
107.390106 5.905754 298.899994 -53511902694903149972152202931573096448.000000
107.749458 5.893899 298.299988 -51849069625957371424115311482140360704.000000
107.997551 5.876117 297.399994 -50853456844538120052179800784638050304.000000
108.242172 5.858335 296.500000 -52525432209612744590660286457587957760.000000
108.813614 5.858335 296.500000 -52195731500300584862083811914308124672.000000
109.348175 5.856359 296.399994 -56199063366664549744527308399516319744.000000
109.956512 5.858335 296.500000 -65209133396701934035710213798741671936.000000
110.639793 5.864262 296.799988 -65875035327604223853234037979338506240.000000
111.773872 5.893899 298.299988 -56531334871393972322330018256896655360.000000
113.403351 5.949223 301.100006 -58198077374790854729841125539014770688.000000
114.551506 5.978860 302.600006 -61197942096616554130977437753660145664.000000
118.482979 6.152733 311.399994 -57523012865350115270203283187649478656.000000
118.433037 6.119144 309.700012 -61196618669389915859482275195513733120.000000
122.834885 6.314751 319.600006 -55199444809348577167683068119885021184.000000
128.240555 6.559754 332.000000 -50197898942533692586572189702197084160.000000
128.996887 6.565682 332.299988 -50196621150728662531335481025366065152.000000
129.793381 6.573585 332.700012 -50530251576901529771056595348582563840.000000
130.003357 6.551851 331.600006 -49528123071397105299997391596604620800.000000
130.681839 6.553826 331.700012 -53865054940319531944656366484152385536.000000
138.130661 6.893670 348.899994 -63206118683281308758405273063927054336.000000
160.047256 7.948762 402.299988 -68210245486718258014577598769341136896.000000
161.861984 8.000134 404.899994 -69211050564996044214141639963172667392.000000
166.739532 8.201669 415.100006 -70546768931854128621581110143864537088.000000
170.243774 8.334049 421.799988 -70548067006068762328488242767946842112.000000
172.232773 8.391348 424.700012 -70880379075617392209631800519829749760.000000
177.248215 8.594858 435.000000 -71878623499682717385804818373186420736.000000
189.549637 9.148091 463.000000 -72878171068565077181802574837438218240.000000
191.634827 9.205390 465.899994 -73210488208716107975863738576133947392.000000
57.277824 5.351448 246.800003 -55179993978538675215746502705901731840.000000
57.753483 5.351448 246.800003 -56178192767182392175661066677943009280.000000
58.205551 5.349279 246.699997 -60176276560061412188382366811880947712.000000
58.633446 5.344943 246.500000 -63180050716338215448992894859211702272.000000
59.084549 5.342774 246.399994 -67850587658421504768784954135911858176.000000
59.438580 5.331933 245.899994 -72856027747880290470617230425846710272.000000
61.301285 5.455527 251.600006 -76527032332888422733164351198733533184.000000
62.915833 5.555271 256.200012 -77195545624027182703255258587933442048.000000
64.746109 5.672360 261.600006 -75527484764006062937166594734481735680.000000
65.948700 5.733074 264.399994 -72524983328931888818875169377169178624.000000
67.287750 5.804629 267.700012 -66187693742246915265736790844725264384.000000
70.235199 6.012789 277.299988 -58515963580508887360395650808420499456.000000
72.658195 6.173245 284.700012 -53513134851286571811130457727088721920.000000
74.209740 6.257811 288.600006 -51514090419545861348311004666713341952.000000
75.957649 6.357554 293.200012 -50514563133073105203983672149712830464.000000
78.219185 6.498496 299.700012 -50511961914041436877251800914735398912.000000
79.822182 6.583061 303.600006 -50515876419094941649643622734233600000.000000
81.201851 6.648111 306.600006 -48851785840753736698040446555221131264.000000
82.433022 6.700150 309.000000 -46855367981056699126540894663887290368.000000
83.646568 6.750022 311.299988 -47856188271141688064857753818157285376.000000
84.300674 6.754359 311.500000 -49853919416860562082017256294011895808.000000
84.546707 6.726171 310.200012 -49853878852041354778676408399509323776.000000
84.952423 6.710993 309.500000 -48851730064127326655946780700280094720.000000
85.244865 6.687140 308.399994 -50517154210899971704880331411064619008.000000
85.978416 6.697983 308.899994 -53517008791520869280181431652084350976.000000
82.678085 6.396584 295.000000 -55848375434015011449979654437968281600.000000
80.848007 6.212276 286.500000 -55513477357241915980857043411546406912.000000
80.831947 6.168909 284.500000 -55509598346405217598888463499737956352.000000
81.037018 6.142889 283.299988 -55841935768965852044620051185684971520.000000
81.064667 6.103859 281.500000 -57175108693418678167421315986340446208.000000
81.404274 6.088681 280.799988 -59175491764193229640488749565300703232.000000
82.266472 6.112533 281.899994 -60843572906623953058247837366003695616.000000
83.074158 6.132048 282.799988 -61517298777030851507637699198784110592.000000
84.210571 6.175414 284.799988 -62527220798425479133057304682068705280.000000
87.318916 6.361891 293.399994 -64535377102680630108814716045084327936.000000
90.670097 6.563546 302.700012 -68873607045817690460380823556714397696.000000
92.188034 6.630764 305.799988 -72880833134825556463545717914169507840.000000
92.868423 6.637269 306.100006 -75218705360200069906632421780903428096.000000
92.969856 6.602576 304.500000 -75553618648780368114507850767763767296.000000
93.280205 6.583061 303.600006 -74221779292758982089036960498880348160.000000
93.803497 6.578724 303.399994 -73220943790866790411967283384171888640.000000
94.792679 6.606913 304.700012 -74224375441188249502851225747044958208.000000
95.536446 6.617754 305.200012 -76228637522799499357887239237813665792.000000
95.872696 6.600408 304.399994 -76558338232111659086463713781093498880.000000
96.395988 6.596071 304.200012 -76558338232111659086463713781093498880.000000
96.982277 6.596071 304.200012 -79893136524927260347145878929850499072.000000
97.536491 6.593903 304.100006 -82895627818796632639602092313537413120.000000
98.090317 6.591734 304.000000 -83888654592991418423558549736500756480.000000
98.513924 6.580893 303.500000 -86019412992698242834111116246727524352.000000
98.870300 6.565714 302.799988 -86673611973259225637800322863332327424.000000
99.782341 6.587398 303.799988 -86001168965259758156564775694195752960.000000
100.433929 6.591734 304.000000 -85341696558201825918565342792256585728.000000
101.053062 6.593903 304.100006 -88007940995059459905815752657311105024.000000
101.639153 6.593903 304.100006 -90014784013292774435913213435805958144.000000
102.225250 6.593903 304.100006 -92678472866540348312690205947198439424.000000
102.811348 6.593903 304.100006 -92013858868647890376238302417058267136.000000
103.397438 6.593903 304.100006 -87340740989942536381384795852631965696.000000
103.983536 6.593903 304.100006 -84204000426906593682392475612682911744.000000
104.569626 6.593903 304.100006 -81535104064993282239234134644522745856.000000
105.155724 6.593903 304.100006 -80538142503335388031215431454809915392.000000
105.741821 6.593903 304.100006 -81206630441462143436718308909945716736.000000
106.257988 6.589566 303.899994 -78872622015117125636847366994581782528.000000
106.210861 6.550536 302.100006 -72532715997593281018224299266721972224.000000
106.581001 6.537526 301.500000 -63187778314397206735424418761951674368.000000
106.486763 6.496327 299.600006 -56175535771524313806835529588024541184.000000
106.921249 6.487654 299.200012 -54510116695354069670819584864052838400.000000
107.390106 6.481149 298.899994 -53513205839720184591976941542468222976.000000
107.857819 6.474644 298.600006 -53183510201010425776318072986001211392.000000
107.997551 6.448624 297.399994 -51854287275827910816331871912533688320.000000
108.351685 6.435614 296.799988 -51856903706666781881816561107949584384.000000
108.813614 6.429109 296.500000 -52861643572407676505442848068530601984.000000
109.311287 6.424773 296.299988 -58533021086985558415222190446752038912.000000
109.808174 6.420435 296.100006 -60535980023779773650433465326625619968.000000
110.490685 6.426940 296.399994 -61201887025284464380874895494035275776.000000
111.623985 6.459466 297.899994 -60201041382187470877970006405701173248.000000
113.365692 6.526684 301.000000 -59532502738036706343291069082437156864.000000
114.589355 6.563546 302.700012 -60197111665326763366825366625764507648.000000
116.162018 6.619923 305.299988 -60525499088617086649741890584523571200.000000
119.350830 6.767369 312.100006 -57861820376574314598800110046756732928.000000
125.986465 7.107797 327.799988 -52864178873608132964245841474941353984.000000
128.472336 7.211877 332.600006 -49533295085846036475955498145682554880.000000
128.996887 7.205372 332.299988 -49533315368255640127625922092933840896.000000
129.754364 7.211877 332.600006 -49197114146665510038678572455616839680.000000
130.081757 7.194531 331.799988 -49528123071397105299997391596604620800.000000
131.036423 7.211877 332.600006 -55866715802899113472960508739943661568.000000
143.277405 7.847199 361.899994 -65207779545860890286709415319718330368.000000
163.826645 8.929197 411.799988 -68878768919061819810503718132166688768.000000
165.259918 8.963891 413.399994 -69544660708759307802192330339137880064.000000
168.466782 9.093990 419.399994 -70213158788090865033530419767899324416.000000
170.284134 9.148199 421.899994 -71211382929746586558033013674004709376.000000
172.111115 9.202408 424.399994 -71543694999295216439176571425887617024.000000
174.884903 9.306488 429.200012 -71876012139446247233237735164583346176.000000
178.741638 9.466945 436.600006 -72208339420802079853134110876904718336.000000
183.778564 9.688115 446.799988 -72874271775318775148163570978378481664.000000
57.556324 5.854877 248.000000 -55849825626301672544414966666435231744.000000
58.010895 5.852516 247.899994 -56848019344342988591411924651663687680.000000
58.252735 5.828908 246.899994 -60847380929027038659369933462432645120.000000
58.681019 5.824186 246.699997 -63849851940486807300155722898868273152.000000
59.132504 5.821826 246.600006 -68852695881516325588173733940638515200.000000
59.583607 5.819465 246.500000 -73859444186394546822748354828281315328.000000
61.203823 5.930424 251.199997 -79197196345401962405724188870099075072.000000
66.943230 6.435643 272.600006 -82866892714990659135528965045277949952.000000
68.483368 6.532438 276.700012 -84202626293655946281721253186408284160.000000
69.066544 6.537159 276.899994 -82199662286259330133592372319721881600.000000
68.846146 6.466334 273.899994 -77195505059207975399914410693430870016.000000
69.703308 6.497025 275.200012 -72192650976973655286061187678034984960.000000
71.407669 6.605623 279.799988 -68522939395577755817503593542417645568.000000
73.258324 6.726027 284.899994 -65185539883730486230089557158683213824.000000
75.776306 6.905450 292.500000 -59514172510357406146145426754087419904.000000
78.219185 7.075430 299.700012 -53844133634813365246614064894450860032.000000
80.006226 7.184029 304.299988 -49847347916148978940799897384595226624.000000
81.387245 7.254854 307.299988 -48850457342924697513627678010261897216.000000
82.459702 7.297349 309.100006 -46856625490452125530107179393467023360.000000
83.539093 7.339844 310.899994 -46190698206537831147995325278806081536.000000
84.273605 7.351648 311.399994 -47853531275483609696032216728238817280.000000
84.519455 7.320957 310.100006 -49520258567073289364790506049918468096.000000
84.897522 7.302071 309.299988 -50186150356770777356479118256889659392.000000
85.493637 7.302071 309.299988 -51185662431436330762053632813451706368.000000
86.702103 7.354009 311.500000 -52851096719413777636822395497861873664.000000
85.536789 7.205276 305.200012 -55517366509283416188660835296980500480.000000
82.117874 6.870038 291.000000 -55179877354683454218641565009206837248.000000
81.144478 6.742552 285.600006 -55509603417007618511806069486550777856.000000
81.151436 6.697696 283.700012 -55841940839568252957537657172497793024.000000
81.007072 6.641036 281.299988 -57175098552213876341586104012714803200.000000
81.578209 6.643397 281.399994 -59175486693590828727571143578487881728.000000
82.499931 6.674088 282.700012 -60843557694816750319495019405565231104.000000
83.279793 6.692975 283.500000 -60184151205590029949424464332192743424.000000
84.654091 6.759078 286.299988 -57526962864620426433018346914837430272.000000
87.705818 6.957388 294.700012 -56863641870340201290555970021966741504.000000
90.610191 7.141534 302.500000 -56866243089371869617287841256944173056.000000
91.946861 7.200555 305.000000 -58536895027219855884273164371747667968.000000
92.625710 7.207637 305.299988 -60876070397411403947184606849376714752.000000
92.969856 7.188750 304.500000 -63213947693388318303188916702923456512.000000
93.464554 7.181668 304.200012 -64217384414312178306990465052609347584.000000
94.019920 7.179307 304.100006 -64219980562741445720804730300773957632.000000
94.637131 7.181668 304.200012 -66221641425321027249108872556565233664.000000
95.254723 7.184029 304.299988 -69891342865512124891831254718556930048.000000
95.872696 7.186390 304.399994 -71893003728091706420135396974348206080.000000
96.427673 7.184029 304.299988 -74561879807595414211623313995257085952.000000
96.982277 7.181668 304.200012 -78897513602303207149375156258722545664.000000
97.536491 7.179307 304.100006 -81898701751355544822006631031514333184.000000
98.090317 7.176947 304.000000 -82558123452389467930830004065325285376.000000
98.513924 7.165143 303.500000 -84880393434176372326443086509007437824.000000
98.870300 7.148616 302.799988 -86011614406205638766833108528608051200.000000
99.749496 7.169864 303.700012 -86014180131020500703141737855895732224.000000
100.400894 7.174586 303.899994 -88015820711190478579775456164435722240.000000
100.953369 7.172225 303.799988 -92021708161164503572692370003305955328.000000
101.605736 7.176947 304.000000 -94023348741334481449326088311845945344.000000
102.225250 7.179307 304.100006 -93353542446583488685245654285376552960.000000
102.811348 7.179307 304.100006 -92683746293037297747000432232532803584.000000
103.295433 7.172225 303.799988 -94018197009295153925038405710019297280.000000
103.812561 7.167503 303.600006 -88683030857512203930041624942740504576.000000
104.535248 7.176947 304.000000 -83208382574884941397539358928367779840.000000
105.121147 7.176947 304.000000 -82876040081721906038890165255607943168.000000
105.567955 7.167503 303.600006 -86019189886192602665736452826963378176.000000
105.768478 7.141534 302.500000 -83545790599846488760876933427136299008.000000
106.175705 7.129730 302.000000 -74871911650194432732806165691602305024.000000
106.510300 7.113204 301.299988 -62855491597860581418868890944132874240.000000
106.842194 7.096678 300.600006 -54177784343395836138005603164918644736.000000
106.956985 7.065987 299.299988 -53178282409935084558266300581982240768.000000
107.426033 7.058905 299.000000 -52848586771225325742607432025515229184.000000
107.893944 7.051822 298.700012 -52849900057247162188267382610035998720.000000
108.106491 7.028214 297.700012 -51520672061462246315363575549755654144.000000
108.388199 7.009327 296.899994 -51524586566515751087755397369253855232.000000
108.850319 7.002244 296.600006 -52861628360600473766690030108092137472.000000
109.237495 6.990440 296.100006 -60201056593994673616722824366139637760.000000
109.400238 6.964471 295.000000 -62204015530788888851934099246013218816.000000
110.229736 6.980997 295.700012 -61869092101003788818223458285527236608.000000
111.324234 7.014048 297.100006 -61200563598057826109379732935888863232.000000
112.047485 7.023492 297.500000 -61532850314594451425935260753707663360.000000
112.772278 7.032936 297.899994 -61865147172335878568326000545152106496.000000
116.085922 7.202916 305.100006 -60859099091175548411957368986863140864.000000
120.192131 7.420113 314.299988 -56529975949950527660411613791060492288.000000
127.639130 7.840342 332.100006 -51863343371715941287176164360232894464.000000
129.128967 7.892281 334.299988 -48532469725158646624721033004599738368.000000
129.346252 7.866311 333.200012 -49198407150277742832668099092886323200.000000
129.871399 7.859229 332.899994 -48864807147719281070452620690546753536.000000
130.120956 7.835620 331.899994 -49528128141999506212914997583417442304.000000
131.036423 7.852146 332.600006 -56200325946662377061011199115908874240.000000
157.609100 9.398495 398.100006 -65207779545860890286709415319718330368.000000
166.651245 9.889548 418.899994 -69544680991168911453862754286389166080.000000
168.897720 9.974539 422.500000 -70545480998844296740509189493407875072.000000
172.885315 10.161045 430.399994 -71546296218326884765908442660865048576.000000
176.419037 10.319221 437.100006 -72544515289380205377493430580157612032.000000
178.883636 10.413654 441.100006 -72876822288326434345719382345227698176.000000
180.018982 10.430181 441.799988 -72543227356370373496421509929700950016.000000
182.016785 10.496284 444.600006 -72874256563511572409410753017940017152.000000
183.984238 10.560026 447.299988 -73206578774265004116389522743448567808.000000
57.602737 6.337394 248.199997 -56850656057591463308567037794330869760.000000
58.081097 6.337394 248.199997 -57516542776686550387338044014489239552.000000
58.465080 6.327181 247.800003 -60849987218661107899019410684222898176.000000
58.681019 6.299094 246.699997 -64853278520205865478122059274928521216.000000
59.228420 6.306754 247.000000 -70189737675601048267108366679476797440.000000
59.946186 6.332287 248.000000 -74862870766113605000714691204341563392.000000
62.129677 6.511021 255.000000 -79199782352626427993703242144638042112.000000
67.729065 7.042117 275.799988 -82537171723268895755282066554746830848.000000
69.201126 7.139143 279.600006 -86670731871095507100600122353649713152.000000
69.715057 7.136590 279.500000 -88002556015309690387318194662094667776.000000
70.228600 7.134037 279.399994 -85331078716774314269098406406208356352.000000
70.488487 7.105950 278.299988 -83866394648451410715268267628214353920.000000
71.050369 7.108503 278.399994 -82531954073398356363065506124353503232.000000
71.689796 7.118717 278.799988 -79529462779528984070609292740666589184.000000
73.185669 7.213191 282.500000 -72522346615683414101720056234501996544.000000
76.183456 7.453204 291.899994 -63514882875280099050186628057066897408.000000
79.270058 7.698325 301.500000 -55844491352575912155093468539347009536.000000
81.254822 7.833652 306.799988 -51514095490148262261228610653526163456.000000
82.833183 7.928126 310.500000 -49517667489246422863893846788566679552.000000
83.297256 7.915359 310.000000 -49185350349095392069832683049870950400.000000
84.138298 7.938339 310.899994 -49517652277439220125141028828128215040.000000
84.519455 7.917912 310.100006 -49184031992471154711255126478537359360.000000
84.650490 7.874506 308.399994 -49182733918256521004347993854455054336.000000
85.079025 7.859186 307.799988 -50515856136685337997973198786982313984.000000
86.201088 7.907700 309.700012 -52851106860618579462657607471487516672.000000
85.424675 7.782586 304.799988 -55182468432510320719538224270558625792.000000
82.146095 7.432777 291.100006 -54847575426339626163333219230949572608.000000
81.258125 7.302557 286.000000 -54844999560319962401189377930036248576.000000
81.208641 7.248937 283.899994 -55509633840622023989311705407427706880.000000
80.978279 7.179996 281.200012 -57175098552213876341586104012714803200.000000
81.607208 7.187657 281.500000 -58841871479225164226602847215709847552.000000
82.733398 7.238723 283.500000 -60177625340300055024465559304091467776.000000
83.514801 7.259150 284.299988 -59516915706256300034570265619823853568.000000
86.635170 7.481291 293.000000 -55523993786621409371971860061338206208.000000
90.384308 7.754498 303.700012 -52526699860212972820061783160793333760.000000
91.748428 7.820886 306.299988 -49860419929138532442388131388049063936.000000
92.459351 7.831099 306.700012 -48529878647331780123824373743247949824.000000
93.050461 7.831099 306.700012 -49198407150277742832668099092886323200.000000
93.397308 7.810672 305.899994 -50536752089179500131427470442619731968.000000
93.679626 7.785139 304.899994 -51540188810103360135229018792305623040.000000
94.236343 7.782586 304.799988 -51876400172898292050011580403248267264.000000
94.792679 7.780032 304.700012 -53547057181348679229914509504864583680.000000
95.348625 7.777479 304.600006 -57883989050271105874573484392412348416.000000
96.061668 7.787692 305.000000 -61886007630613234311357030293099773952.000000
96.712875 7.792799 305.200012 -66888856642245153512292647321682837504.000000
97.014160 7.769818 304.299988 -72225320868242737214196560713043935232.000000
97.536491 7.764712 304.100006 -74560591874585582330551393344800423936.000000
98.122589 7.764712 304.100006 -74887696435468474645313602639915646976.000000
98.676224 7.762159 304.000000 -75544516917470729427405104438749167616.000000
99.229469 7.759605 303.899994 -76869855761214145092505119613595418624.000000
99.683800 7.749392 303.500000 -79205106485147386557189528298100621312.000000
100.004440 7.728965 302.700012 -83209716143316381494869733460139835392.000000
100.687531 7.736625 303.000000 -91357124586886451113746102394042712064.000000
101.605736 7.762159 304.000000 -96694886887098668522557148409486114816.000000
102.225250 7.764712 304.100006 -98026741454927257286780856638807998464.000000
102.777534 7.762159 304.000000 -96027697023186546823961403578432618496.000000
103.261436 7.754498 303.700012 -94690680582113828709614800773658443776.000000
103.402245 7.721305 302.399994 -92024395580436987419023543014101352448.000000
103.916283 7.716198 302.200012 -88021043431663418884909622581641871360.000000
104.913666 7.746839 303.399994 -90025249736648258697851970217469542400.000000
105.498421 7.746839 303.399994 -97367187918230910442099727947863687168.000000
105.593651 7.711092 302.000000 -89363079769113040787686152331109335040.000000
105.999916 7.698325 301.500000 -73540097647185051271923305356782993408.000000
106.474945 7.690665 301.200012 -59190997666335221342527857238908862464.000000
106.806656 7.672792 300.500000 -52512339914213587437401628506882834432.000000
107.028450 7.647258 299.500000 -52180053197676962120846100689064034304.000000
107.426033 7.634492 299.000000 -52516274701676695861463874273632321536.000000
107.966187 7.631938 298.899994 -52851193060859394982256909247305482240.000000
108.433319 7.624278 298.600006 -51854272064020708077579053952095223808.000000
108.461212 7.585978 297.100006 -52190493568020441818196827536663511040.000000
108.887016 7.575765 296.700012 -53527540432707565410049066262314614784.000000
109.274384 7.562998 296.200012 -60534651525950734466020696781666385920.000000
109.437325 7.534911 295.100006 -61870390175218422525130590909609541632.000000
110.677071 7.580871 296.899994 -61200553456853024283544520962263220224.000000
111.324234 7.585978 297.100006 -60534626172938729901432666847602278400.000000
112.047485 7.596192 297.500000 -62532367459862405744427381297082531840.000000
112.734428 7.603851 297.799988 -62533660463474638538416907934352015360.000000
117.303467 7.871952 308.299988 -59527254664551761473568872731166900224.000000
126.922592 8.474541 331.899994 -54193396728188247011314436561596055552.000000
128.869003 8.561355 335.299988 -50862512940426150523024093232337256448.000000
129.708389 8.574121 335.799988 -47865254508234520361537258239482134528.000000
129.967377 8.548588 334.799988 -48864802077116880157535014703733932032.000000
129.949432 8.505181 333.100006 -49197119217267910951596178442429661184.000000
130.277786 8.484755 332.299988 -49528138283204308038750209557043085312.000000
131.272797 8.507734 333.200012 -56199032943050144267021672478639390720.000000
163.151764 10.522321 412.100006 -65206481471646256579802282695636025344.000000
168.322128 10.803188 423.100006 -69875689915900506715181573427376947200.000000
170.336838 10.879789 426.100006 -71210094996736754676961093023548047360.000000
174.572403 11.096823 434.600006 -72543217215165571670586297956075307008.000000
179.002167 11.324070 443.500000 -73544037505250560608903157110345302016.000000
180.140793 11.341944 444.200012 -73875051500584556783139582238145904640.000000
181.404373 11.367477 445.200012 -73541451498026095020924103835806334976.000000
182.917450 11.408331 446.799988 -73872475634564893020995740937232580608.000000
184.971405 11.482377 449.700012 -73872490846372095759748558897671045120.000000
57.602737 6.815189 248.199997 -56186036989096604459197528277377875968.000000
58.081097 6.815189 248.199997 -56851928778794092450886140484349067264.000000
58.488674 6.806952 247.899994 -59185845934295893818240174637082214400.000000
58.704803 6.776747 246.800003 -64522279736679072042638452107566383104.000000
59.636066 6.828918 248.699997 -71528082614502805565867738029210206208.000000
61.686558 7.007398 255.199997 -76865834773510221148843572071027965952.000000
67.026962 7.553822 275.100006 -79534700711809127114496277118311202816.000000
68.072868 7.611485 277.200012 -81535043217764471284222862802768887808.000000
69.126869 7.669147 279.299988 -84202616152451144455886041212782641152.000000
69.739998 7.677384 279.600006 -86000905293934910684849264379929034752.000000
70.027519 7.649926 278.600006 -86665529433032170447136379883694850048.000000
70.843079 7.680130 279.700012 -88664584005977682735791044917695873024.000000
71.433189 7.685622 279.899994 -89999014439825935262158594447931080704.000000
71.946922 7.682876 279.799988 -88659371426709544256492090474115366912.000000
72.486191 7.682876 279.799988 -83193966852259145972785538419516243968.000000
72.947151 7.674639 279.500000 -76854081117144905005832894638907719680.000000
73.959091 7.724064 281.299988 -70519397820094000692343993328254058496.000000
76.937828 7.976681 290.500000 -61184844730614996064801173816142200832.000000
82.006187 8.440730 307.399994 -55185084863349191785022913465974521856.000000
82.947952 8.476426 308.700012 -51183076424211865174074579538912739328.000000
84.057098 8.528597 310.600006 -49515040917202749972573945619525140480.000000
84.383171 8.501139 309.600006 -50848163135631566966199150552052400128.000000
84.019180 8.405034 306.100006 -51850281499931189611423142330404700160.000000
84.719688 8.416018 306.500000 -51850281499931189611423142330404700160.000000
85.477417 8.432492 307.100006 -52179992350448151165834828847310176256.000000
83.126511 8.144178 296.600006 -54513960211973961662364922868171538432.000000
81.751030 7.954715 289.700012 -54513975423781164401117740828610002944.000000
81.201302 7.847627 285.799988 -54845004630922363314106983916849070080.000000
81.094223 7.784472 283.500000 -55510936985439058609136444018322833408.000000
80.920677 7.715827 281.000000 -57507410621762506222729661764597710848.000000
81.578209 7.726810 281.399994 -58509559409676534345459289463826939904.000000
82.733398 7.784472 283.500000 -59510399982171126935446572565348220928.000000
83.632294 7.817423 284.700012 -58182454848793642030697080168711716864.000000
88.054459 8.177128 297.799988 -53853316495761418540398507012470603776.000000
90.860481 8.383067 305.299988 -51523242856879509164589810863856156672.000000
91.778381 8.413272 306.399994 -49525486358148630582842278453937438720.000000
92.489494 8.424254 306.799988 -48525959071675874438514945936936927232.000000
93.080795 8.424254 306.799988 -47861345073783416502063042406796754944.000000
93.641563 8.421509 306.700012 -47196736146493359478528744863469404160.000000
94.048325 8.405034 306.100006 -46199815149654672573850889568259145728.000000
94.576431 8.399542 305.899994 -46201123365074108106593234165967093760.000000
95.383766 8.418763 306.600006 -47536867084944197078620734280723070976.000000
95.755562 8.399542 305.899994 -49541129166555446933656747771491778560.000000
96.187653 8.385813 305.399994 -51876400172898292050011580403248267264.000000
96.807938 8.388558 305.500000 -55543510535262523191837303303888175104.000000
97.077919 8.361100 304.500000 -58879617043497559985261813050353123328.000000
97.600639 8.355609 304.299988 -59879144329970316129589145567353634816.000000
98.154854 8.352862 304.200012 -59206726674982853212941628332281167872.000000
98.741142 8.352862 304.200012 -59198933159092650058581226600974516224.000000
99.294777 8.350117 304.100006 -60528171296082367757320245634880503808.000000
99.880875 8.350117 304.100006 -63864257521907800899074331434094166016.000000
100.433929 8.347371 304.000000 -69870533113258778277976284838737477632.000000
100.953369 8.341879 303.799988 -77209941064243374476338655149533691904.000000
101.572304 8.344625 303.899994 -82547718576262794623902519125415559168.000000
102.090790 8.339133 303.700012 -84548086435230143358217134743937351680.000000
102.338028 8.311675 302.700012 -84546798502220311477145214093480689664.000000
103.125435 8.328150 303.299988 -84213198499661849714929735691141120000.000000
103.299660 8.295200 302.100006 -86024686419195192268421342532061888512.000000
103.916283 8.297946 302.200012 -88026316858160368319219848866976235520.000000
104.913666 8.330896 303.399994 -93366624600777844012669100262456033280.000000
105.150696 8.303437 302.399994 -100043948784468037820464954462710005760.000000
105.104149 8.254012 300.600006 -88036498627781401457772670387121815552.000000
105.894440 8.270487 301.200012 -69539402494069561106634922014241980416.000000
106.404243 8.264996 301.000000 -55522604441563559232547819674625114112.000000
106.415680 8.221062 299.399994 -51515413846772499619806167224859754496.000000
106.956985 8.218316 299.299988 -52181351271891595827753233313146339328.000000
107.426033 8.210078 299.000000 -52851182919654593156421697273679839232.000000
107.966187 8.207333 298.899994 -52855087283503296102978307119552397312.000000
108.469627 8.201841 298.700012 -52521487280944834340762828717212827648.000000
108.461212 8.157907 297.100006 -53523620857051659724739638456003592192.000000
108.850319 8.144178 296.600006 -55195575939716680611549700181702213632.000000
109.311287 8.135941 296.299988 -61200553456853024283544520962263220224.000000
109.956512 8.141432 296.500000 -61203154675884692610276392197240651776.000000
110.677071 8.152415 296.899994 -60866928101282557956741012625859543040.000000
111.286758 8.155162 297.000000 -61534138247604283307007181404164325376.000000
112.085152 8.171637 297.600006 -64535316255451819153803444203330469888.000000
112.772278 8.179874 297.899994 -64866320109581013502204657357505429504.000000
118.482979 8.550564 311.399994 -59196235598615364386414841616553476096.000000
128.605209 9.234279 336.299988 -52858951082532791746194069070922383360.000000
129.599258 9.258991 337.200012 -50530205941479921554798141467267170304.000000
130.094635 9.248008 336.799988 -48197566577783150242680815991365042176.000000
130.277939 9.215058 335.600006 -49530719219826372713811656844769230848.000000
130.807709 9.206820 335.299988 -49863036359977403507872820583464960000.000000
130.748245 9.157395 333.500000 -50192762422301567801037325060808900608.000000
131.706177 9.179362 334.299988 -56531339941996373235247624243709476864.000000
165.131271 11.452923 417.100006 -65205178326829221959977544084740898816.000000
168.759750 11.647878 424.200012 -69540776627320208507306144440516608000.000000
169.817169 11.664352 424.799988 -70873883633941822762178531412605403136.000000
172.644318 11.801644 429.799988 -72208303926585273462710868969214967808.000000
178.275665 12.128401 441.700012 -73873738214562720337479631653625135104.000000
180.059708 12.191554 444.000000 -74538357283057579186849141170578128896.000000
181.445114 12.227250 445.299988 -74206065495918552957376007365946507264.000000
182.917450 12.268438 446.799988 -74869401702005980838591202219255660544.000000
184.231033 12.298643 447.899994 -74870709917425416371333546816963608576.000000
57.579529 7.290046 248.100006 -55518816701570077283096147525447450624.000000
58.034294 7.287107 248.000000 -56187314780901634514434236954208894976.000000
58.299927 7.260662 247.100006 -59188467435737165796642469819310931968.000000
58.704803 7.251847 246.800003 -64524906308722744933958353276607922176.000000
60.954918 7.469285 254.199997 -71532007260761112164094771822334050304.000000
67.076881 8.153920 277.500000 -77866685487209615564666067146174889984.000000
67.952812 8.195058 278.899994 -80201941281745257942268081817492914176.000000
68.539459 8.200934 279.100006 -82200985713485968405087534877868294144.000000
69.151627 8.209749 279.399994 -85336331860861660051738208744291434496.000000
69.390800 8.174489 278.200012 -88002596580128897690659042556597239808.000000
70.278877 8.215626 279.600006 -87994787852431491797545822864852123648.000000
70.868408 8.221502 279.799988 -89324015848216407670449629925132468224.000000
71.433189 8.224441 279.899994 -89988629846108865606901533455272640512.000000
71.972641 8.224441 279.899994 -89986033697679598193087268207108030464.000000
72.512093 8.224441 279.899994 -88648986832992474601235029481456926720.000000
73.077644 8.227379 280.000000 -85307693098501303893099595225475579904.000000
73.669876 8.233256 280.200012 -82189252339530255913747281392999333888.000000
74.766090 8.294962 282.299988 -73524485262392640398614471960105582592.000000
76.750748 8.453632 287.700012 -65856654393900914526912335782860554240.000000
78.944313 8.632872 293.799988 -58518554658335753861292310069772288000.000000
79.835304 8.668132 295.000000 -53514432925501205518037590351171026944.000000
82.229980 8.865001 301.700012 -52847202496769876516100997625614958592.000000
82.289940 8.809173 299.799988 -53849331002274300987160201377592901632.000000
81.458046 8.659317 294.700012 -53180812640533140104151688001580171264.000000
82.499207 8.709269 296.399994 -51845089203072654783794611834075480064.000000
80.968475 8.488893 288.899994 -54511374204749496074385869593632571392.000000
81.045547 8.438940 287.200012 -54511384345954297900221081567258214400.000000
80.775124 8.353728 284.299988 -54843716697912531433035063266392408064.000000
80.865387 8.306715 282.700012 -55843254125590089403197607757018562560.000000
80.920677 8.256763 281.000000 -57175103622816277254503709999527624704.000000
81.317299 8.242071 280.500000 -58175939124708468931573387114236084224.000000
82.324844 8.289085 282.100006 -59175476552386026901735931604862238720.000000
83.103539 8.312592 282.899994 -57512618130428243789111010221365395456.000000
88.409271 8.785666 299.000000 -52180053197676962120846100689064034304.000000
90.562874 8.941399 304.299988 -51516727132794336065466117809380524032.000000
91.598656 8.985474 305.799988 -50853411209116511835921346903322656768.000000
92.429199 9.008981 306.600006 -50854714353933546455746085514217783296.000000
93.080795 9.014857 306.799988 -50525013644621386727169610970937950208.000000
93.672096 9.014857 306.799988 -49860399646728928790717707440797777920.000000
94.263390 9.014857 306.799988 -48529868506126978297989161769622306816.000000
94.854691 9.014857 306.799988 -48531181792148814743649112354143076352.000000
95.414879 9.011919 306.700012 -48866090010126712038606935354190594048.000000
95.849472 8.997228 306.200012 -48533788081782883983298589575933329408.000000
96.282135 8.982535 305.700012 -47867876009675792339939553421710852096.000000
96.934692 8.988412 305.899994 -48532495078170651189309062938663845888.000000
97.173561 8.956090 304.799988 -49198417291482544658503311066511966208.000000
97.632713 8.944337 304.399994 -48529893859138982862577191703686414336.000000
98.154854 8.938460 304.200012 -47194160280473695716384903562556080128.000000
98.741142 8.938460 304.200012 -48857028843636280654845036919678566400.000000
99.327431 8.938460 304.200012 -49853959981679769385358104188514467840.000000
99.913712 8.938460 304.200012 -51855610703054549087827034470680100864.000000
100.466965 8.935522 304.100006 -55860220361223544025507239632719314944.000000
101.019829 8.932583 304.000000 -61196674446016325901575941050454769664.000000
101.438614 8.917892 303.500000 -65533616456143554372070127911628177408.000000
101.586548 8.879693 302.200012 -67201682386767075051076397751892705280.000000
102.067558 8.870877 301.899994 -68201229955649434847074154216144502784.000000
102.615417 8.867939 301.799988 -71537341534486872553416269949422272512.000000
103.162880 8.865001 301.700012 -73204099249690957699680195191978852352.000000
103.744354 8.865001 301.700012 -74873437901517107521005567722261577728.000000
104.325821 8.865001 301.700012 -78544417133513235218964658561084293120.000000
104.837746 8.859124 301.500000 -81883079225358332122862585661211279360.000000
104.929329 8.817988 300.100006 -76546579505143942030535430362160431104.000000
105.859283 8.847371 301.100006 -62202616044526236886674846885674483712.000000
106.368896 8.841495 300.899994 -52855041648081687886719853238237003776.000000
106.415680 8.797419 299.399994 -51850332205955198740599202198532915200.000000
106.921249 8.791542 299.200012 -52516259489869493122711056313193857024.000000
107.426033 8.785666 299.000000 -53518398136578719419605472038797443072.000000
