# .PCD v.7 - Point Cloud Data file format
VERSION .7
FIELDS x y z rgb
SIZE 4 4 4 4
TYPE F F F F
COUNT 1 1 1 1
WIDTH 609
HEIGHT 1
POINTS 609
DATA ascii
24.163134 21.617693 253.699997 -53855932926600289605883196207886499840.000000
24.525770 21.506920 252.399994 -56189921070535703754083714175999148032.000000
24.972584 21.472836 252.000000 -57859290145976259052914722627158802432.000000
25.468369 21.481358 252.100006 -58529137005546459120336004548130766848.000000
26.036604 21.549524 252.899994 -59532588938277521862890370858255122432.000000
26.565973 21.583609 253.300003 -61536881443503177195432020269900759040.000000
27.075521 21.600651 253.500000 -64875604382577085054341219211781603328.000000
27.553223 21.592129 253.399994 -67212198816146568442191214401684504576.000000
28.019470 21.575089 253.199997 -66546276602834674972996966273836384256.000000
28.518724 21.583609 253.300003 -65872484814596564655678226612489289728.000000
29.018364 21.592129 253.399994 -64866360674400220805545505252008001536.000000
29.518387 21.600651 253.500000 -62196140885260271090892001725701423104.000000
30.089821 21.660297 254.199997 -58194122304918142654108455825013997568.000000
31.373709 22.222681 260.799988 -53859791655027384336181352172443664384.000000
32.340805 22.546478 264.600006 -49191855931975763343121164130720940032.000000
33.161156 22.759501 267.100006 -46193269001955093997221560592906584064.000000
33.675941 22.759501 267.100006 -46194567076169727704128693216988889088.000000
34.203526 22.768023 267.200012 -46532071442576892412900781465201016832.000000
34.705505 22.759501 267.100006 -46199769514233064357592435686943752192.000000
35.220295 22.759501 267.100006 -46533374587393927032725520076096143360.000000
35.735077 22.759501 267.100006 -46532076513179293325818387452013838336.000000
36.249863 22.759501 267.100006 -46864383512125522294044339217083924480.000000
36.737118 22.742460 266.899994 -47196690511071751262270290982154010624.000000
37.237560 22.733940 266.799988 -47196685440469350349352684995341189120.000000
37.624416 22.657249 265.899994 -47527694365200945610671504136328970240.000000
38.079517 22.623167 265.500000 -47526391220383910990846765525433843712.000000
38.591221 22.623167 265.500000 -47525093146169277283939632901351538688.000000
39.058735 22.597605 265.200012 -47858703289932540871990323277316751360.000000
39.540016 22.580561 265.000000 -48192318504298205372958619640094785536.000000
39.990299 22.546478 264.600006 -48525943859868671699762127976498462720.000000
40.377819 22.478310 263.799988 -48858266070622103406740897702007013376.000000
40.808746 22.435705 263.299988 -48856983208214672438586583038363172864.000000
41.300518 22.427183 263.200012 -48856993349419474264421795011988815872.000000
41.791897 22.418663 263.100006 -48522095272646378795299183985566941184.000000
42.298973 22.418663 263.100006 -48522100343248779708216789972379762688.000000
42.806049 22.418663 263.100006 -48855720628216845122102692321970618368.000000
43.313126 22.418663 263.100006 -49522940915743372298204073073901043712.000000
43.820202 22.418663 263.100006 -49856551059506635886254763449866256384.000000
44.293579 22.401623 262.899994 -50523771347033163062356144201796681728.000000
44.663944 22.333454 262.100006 -51858206851483816501641299718844710912.000000
45.048458 22.273806 261.399994 -52859042353376008178710976833553170432.000000
45.534828 22.265285 261.299988 -55529221577696750590023632465357176832.000000
46.020817 22.256765 261.200012 -58198107798405260207346761459891699712.000000
46.506420 22.248243 261.100006 -60866999089716170737587496441239044096.000000
46.973629 22.231201 260.899994 -62533751734317854970933815696982802432.000000
47.349083 22.171555 260.200012 -60198485798577410767496589052039135232.000000
47.721840 22.111910 259.500000 -58195526861783195532285314172165554176.000000
48.184811 22.094866 259.299988 -62864765729651851145170240824783405056.000000
48.665787 22.086346 259.200012 -71201114959884737899880890378041163776.000000
49.165344 22.086346 259.200012 -77874615909364643367801830521427722240.000000
49.626583 22.069304 259.000000 -83543371922501253299178877717420441600.000000
49.990284 22.009657 258.299988 -87348691694507167836190983175136083968.000000
50.292645 21.924446 257.299988 -81872699702243663380523130655365660672.000000
50.610889 21.847757 256.399994 -73864753107108302647481823021305430016.000000
50.965530 21.788111 255.699997 -70529934531883097735129233925297143808.000000
51.418091 21.771070 255.500000 -75200476544568787967838899188810121216.000000
51.829254 21.736984 255.100006 -82203632567939244948077859994161119232.000000
52.095299 21.643255 254.000000 -108683758356588359955141096802896314368.000000
52.564133 21.634733 253.899994 -102008878203255406173631328246422306816.000000
53.032581 21.626213 253.800003 -77862694923120097098510155524484366336.000000
53.479557 21.609171 253.600006 -60849916230227495118172926868843397120.000000
53.947044 21.600651 253.500000 -54844979277910358749518953982784962560.000000
54.371193 21.575089 253.199997 -54512717914385737997551456099030269952.000000
54.642525 21.489878 252.199997 -54516647631246445508696095878966935552.000000
55.106735 21.481358 252.100006 -54850278057419312748417210202183434240.000000
55.548508 21.464315 251.899994 -53183535554022430340906102920065318912.000000
56.033993 21.464315 251.899994 -53186136773054098667637974155042750464.000000
56.519482 21.464315 251.899994 -52518891132515566926948563469048217600.000000
56.982342 21.455793 251.800003 -55522665288792370187559091516378972160.000000
57.513287 21.472836 252.000000 -62862063098572164560086249853549543424.000000
58.091030 21.506920 252.399994 -66864061396504689345199371806985682944.000000
58.855980 21.609171 253.600006 -67197661399063151107414850209325252608.000000
61.029613 22.222681 260.799988 -66529183602141197527747184727815094272.000000
64.363495 23.245197 272.799988 -65192197584682884890906217843917848576.000000
65.983437 23.637161 277.399994 -64191387435802697778424570663273496576.000000
67.141533 23.858707 280.000000 -63857767150834632364538668313682640896.000000
68.140442 24.020605 281.899994 -63859055083844464245610588964139302912.000000
69.097946 24.165461 283.600006 -63861646161671330746507248225491091456.000000
69.890106 24.250669 284.600006 -63861641091068929833589642238678269952.000000
70.661369 24.327360 285.500000 -63529318880315498126610872513169719296.000000
72.807961 24.872702 291.899994 -62528488449025707362458801385274081280.000000
73.244865 24.830097 291.399994 -62197469383089310275304770270660657152.000000
72.768028 24.480738 287.299988 -63531915028744765540425137761334329344.000000
73.525909 24.548904 288.100006 -64866355603797819892627899265195180032.000000
74.209740 24.591509 288.600006 -63198299814379101039456841398556295168.000000
78.885078 25.946342 304.500000 -57860542584769284543563401369925713920.000000
83.595612 27.292656 320.299988 -52856390428320330722803045730447523840.000000
84.738770 27.463076 322.299988 -50187524490021424757150340683164286976.000000
91.901634 29.567755 347.000000 -54861981007760619762251827766175465472.000000
94.784637 30.274994 355.299988 -56864945015157235910380708632861868032.000000
96.651695 30.649916 359.700012 -57532145020274159434811665437541007360.000000
85.085495 26.789919 314.399994 -56195077873177432191289002764638617600.000000
78.250671 24.463696 287.100006 -53523585362834853334316396548313841664.000000
78.694214 24.429611 286.700012 -52518845497093958710690109587732824064.000000
79.274414 24.438133 286.799988 -53517074709352081148110309480651030528.000000
79.827171 24.438133 286.799988 -54848939418385471738169229683598557184.000000
80.379913 24.438133 286.799988 -55179968625526670651158472771837624320.000000
80.706917 24.369965 286.000000 -55516190129526404391776246356405911552.000000
81.314957 24.387007 286.200012 -57854072496105719660698162196765474816.000000
82.381432 24.540384 288.000000 -61527683370747921162894760191442550784.000000
85.729843 25.366917 297.700012 -65201289174787721752173752199306805248.000000
92.594460 27.215967 319.399994 -67206829048204001662446474366906531840.000000
102.139999 29.823381 350.000000 -67876630272352593513609302406563102720.000000
102.667679 29.780777 349.500000 -68210245486718258014577598769341136896.000000
111.088173 32.013271 375.700012 -69540801980332213071894174374580715520.000000
111.871780 32.030315 375.899994 -69540807050934613984811780361393537024.000000
112.506401 32.004753 375.600006 -69874417194697877572862470737358749696.000000
112.627365 31.834330 373.600006 -70208032409063542073830767100136783872.000000
112.679947 31.646872 371.399994 -70541642552826805661881457476101996544.000000
113.212555 31.595745 370.799988 -70876550770804702956839280476149514240.000000
113.681404 31.527576 370.000000 -71208857769750931925065232241219600384.000000
114.270844 31.493492 369.600006 -70875247625987668337014541865254387712.000000
114.827621 31.450888 369.100006 -70541642552826805661881457476101996544.000000
115.726807 31.502014 369.700012 -70541642552826805661881457476101996544.000000
117.226730 31.715036 372.200012 -70875247625987668337014541865254387712.000000
118.039139 31.740601 372.500000 -70875247625987668337014541865254387712.000000
119.075874 31.825809 373.500000 -70875247625987668337014541865254387712.000000
120.148537 31.919542 374.600006 -70875247625987668337014541865254387712.000000
120.902771 31.928062 374.700012 -70875252696590069249932147852067209216.000000
121.949532 32.013271 375.700012 -71204968617709431717261440355785506816.000000
122.673615 32.013271 375.700012 -71204968617709431717261440355785506816.000000
123.463402 32.030315 375.899994 -70872646406956000010282670630276956160.000000
124.121796 32.013271 375.700012 -70208032409063542073830767100136783872.000000
124.912346 32.030315 375.899994 -70541642552826805661881457476101996544.000000
125.235748 31.928062 374.700012 -70544243771858473988613328711079428096.000000
126.226837 31.996229 375.500000 -71211453918180199338879497489384210432.000000
127.051964 32.021793 375.799988 -71543760917126428307105449254454296576.000000
127.776253 32.021793 375.799988 -71876067916072657275331401019524382720.000000
128.705704 32.072918 376.399994 -72539383839750481504876171925582249984.000000
130.153259 32.251862 378.500000 -72871680697491908647266911717026693120.000000
131.608902 32.430798 380.600006 -71199725614826887760456849991328071680.000000
116.277756 28.494112 334.399994 -65525751951819738436863242364942024704.000000
108.250977 26.380913 309.600006 -58850942786920397436199957623847518208.000000
107.863266 26.142324 306.799988 -54180405844837108116407898347147362304.000000
108.454567 26.142324 306.799988 -52517593058300933220041430844965912576.000000
109.045860 26.142324 306.799988 -52522825919978675351010809235797704704.000000
109.637161 26.142324 306.799988 -50191464348086934094130192436726595584.000000
110.228455 26.142324 306.799988 -49191926920409376123967647946100441088.000000
110.169579 25.988949 305.000000 -56531334871393972322330018256896655360.000000
111.701569 26.210493 307.600006 -66209918192570116583603831045321916416.000000
116.638695 27.224487 319.500000 -72548495712264922017814130228222492672.000000
126.025627 29.261000 343.399994 -75549678790714858777527999014201458688.000000
135.873596 31.382719 368.299988 -73545401497296406183739167562994286592.000000
137.621796 31.621307 371.100006 -74543620568349726795324155482286850048.000000
135.951248 31.075966 364.700012 -73540188918028267704440213119413780480.000000
136.279434 30.990755 363.700012 -74872023203447252816993497401484378112.000000
137.018066 30.999275 363.799988 -74202201696889057314160245414576521216.000000
134.122925 30.189785 354.299988 -65192126596249272110059734028538347520.000000
130.163864 29.150227 342.100006 -55179922990105062434900018890522230784.000000
130.670227 29.116142 341.700012 -50849516986472610715199949031075741696.000000
130.982880 29.039455 340.799988 -52524108782386106319165123899441545216.000000
131.407959 28.988329 340.200012 -50859972568623293151303493839113682944.000000
132.141266 29.005369 340.399994 -52528013146234809265721733745314103296.000000
134.357803 29.346209 344.399994 -61536774960852758024162294546831507456.000000
135.648849 29.482544 346.000000 -72544601489621020897092732355975577600.000000
136.827866 29.593317 347.299988 -75880692786048854951764424142002061312.000000
142.406418 30.649916 359.700012 -74879847142951861448859535053667958784.000000
148.032776 31.706518 372.100006 -74544923713166761415148894093181976576.000000
150.388931 32.055874 376.200012 -74877230712112990383374845858252062720.000000
151.957520 32.234818 378.299988 -75209542781661620264518403610134970368.000000
152.525192 32.200733 377.899994 -75541849780607849232744355375205056512.000000
152.969635 32.141087 377.200012 -75541854851210250145661961362017878016.000000
153.615128 32.124043 377.000000 -75875464994973513733712651737983090688.000000
154.873932 32.234818 378.299988 -75875475136178315559547863711608733696.000000
156.631332 32.447842 380.799988 -75875464994973513733712651737983090688.000000
158.109100 32.601219 382.600006 -75878061143402781147526916986147700736.000000
159.344696 32.703472 383.799988 -76545271289724506497793085764452483072.000000
160.126114 32.711990 383.899994 -76878881433487770085843776140417695744.000000
160.614594 32.660862 383.299988 -76211661145961242909742395388487270400.000000
160.932373 32.575653 382.299988 -75876747857380944701866966401626931200.000000
160.400528 32.320026 379.299988 -74875917426091153937714895273731293184.000000
161.216507 32.337070 379.500000 -74875917426091153937714895273731293184.000000
161.990601 32.345589 379.600006 -75209527569854417525765585649696505856.000000
163.150879 32.430798 380.600006 -75539233349768978167259666179789160448.000000
164.358078 32.524529 381.700012 -75539233349768978167259666179789160448.000000
165.612747 32.626781 382.899994 -76203852418263837016629175696742154240.000000
166.785156 32.711990 383.899994 -76537462562027100604679866072707366912.000000
167.525070 32.711990 383.899994 -76537462562027100604679866072707366912.000000
168.308792 32.720512 384.000000 -76203852418263837016629175696742154240.000000
169.048874 32.720512 384.000000 -76203847347661436103711569709929332736.000000
169.788956 32.720512 384.000000 -75872828281725039016557538595315908608.000000
170.617859 32.737553 384.200012 -75874116214734870897629459245772570624.000000
171.358337 32.737553 384.200012 -75874116214734870897629459245772570624.000000
171.919632 32.703472 383.799988 -75874116214734870897629459245772570624.000000
172.479385 32.669388 383.399994 -75874116214734870897629459245772570624.000000
173.760468 32.771637 384.600006 -76207726358498134485680149621737783296.000000
174.728577 32.814243 385.100006 -76207726358498134485680149621737783296.000000
176.837738 33.069870 388.100006 -76541336502261398073730839997702995968.000000
176.807831 32.925014 386.399994 -75874116214734870897629459245772570624.000000
176.725433 32.771637 384.600006 -75540506070971607309578768869807357952.000000
177.189835 32.720512 384.000000 -74873285783445080133477388117876932608.000000
177.327545 32.609737 382.700012 -73872450281552888456407711003168473088.000000
177.227615 32.456364 380.899994 -73872450281552888456407711003168473088.000000
176.746979 32.234818 378.299988 -75206895927208343721528078493842145280.000000
177.241501 32.192211 377.799988 -75206895927208343721528078493842145280.000000
178.534927 32.294464 379.000000 -74203464276886884630644136130969075712.000000
178.130173 32.089962 376.600006 -79867027993164959734392652830632574976.000000
178.713531 32.064400 376.299988 -80534253351293887823411639569375821824.000000
179.009613 31.987709 375.399994 -73196153615728727157791613856287555584.000000
179.014969 31.859892 373.899994 -62525856806379633558221294229419720704.000000
179.399078 31.800247 373.200012 -56522207787072329070639241993817948160.000000
179.249619 31.646872 371.399994 -51521975206279280935188314160650780672.000000
179.626236 31.587225 370.700012 -48855710487012043296267480348344975360.000000
182.773117 32.013271 375.700012 -54527093072192326118964428713379233792.000000
187.062622 32.635300 383.000000 -72875650979171823461752399391465930752.000000
189.075668 32.856846 385.600006 -83883467366735284508847625226984357888.000000
190.754166 33.018745 387.500000 -90695157443447269720284523980195364864.000000
192.094025 33.120998 388.700012 -87353802861727288057137817882460160000.000000
193.041611 33.155079 389.100006 -87351135724864407862477068818916048896.000000
193.642120 33.129517 388.799988 -88677727007400849018225762736529211392.000000
193.891479 33.044308 387.799988 -88005294140606183362825427541018279936.000000
193.835846 32.907970 386.200012 -88007930853854658079980540683685462016.000000
193.774033 32.771637 384.600006 -88675191706200392559422769330118459392.000000
194.060089 32.694950 383.700012 -89342422134931721561359362055674527744.000000
193.936523 32.550091 382.000000 -90009642422458248737460742807604953088.000000
193.347763 32.328545 379.399994 -90676842427575172261891699612284092416.000000
193.107056 32.166649 377.500000 -91344062715101699437993080364214517760.000000
193.937317 32.183689 377.700012 -92011272861423424788259249142519300096.000000
194.098312 32.089962 376.600006 -92678483007745150138525417920824082432.000000
195.082809 32.132565 377.100006 -92013848727443088550403090443432624128.000000
197.886597 32.473404 381.100006 -91346628439916561374301709691502198784.000000
197.995682 32.371151 379.899994 -92013838586238286724567878469806981120.000000
-22.621840 21.051746 241.600006 -58516070063159306531665376531489751040.000000
-21.789375 20.703207 237.600006 -61526420790750093846410869475049996288.000000
-21.232693 20.607359 236.500000 -67204349523629955245737146815436816384.000000
-20.776884 20.607359 236.500000 -68541426811931484315095021461964849152.000000
-20.321074 20.607359 236.500000 -68544043242770355380579710657380745216.000000
-19.840065 20.581219 236.199997 -67875519810426793584653591294555193344.000000
-19.335594 20.528938 235.600006 -68872425595458277750578628629326987264.000000
-18.961662 20.616072 236.600006 -71202453598918578910128870896626040832.000000
-18.529123 20.642212 236.899994 -73197568313798581861803684177064755200.000000
-18.148832 20.729347 237.899994 -74526765885969092257201855316468170752.000000
-17.891098 20.964609 240.600006 -76190891958527103599228273403170390016.000000
-17.499821 21.051746 241.600006 -78191214182072844117284435140376788992.000000
-17.139940 21.182447 243.100006 -80196733773079520375886733360725229568.000000
-16.678270 21.191160 243.199997 -81866082566110472023047317864633597952.000000
-16.222878 21.208588 243.399994 -83867758640497256290104278080863338496.000000
-15.812021 21.287008 244.300003 -86670883989167534488128301958034358272.000000
-15.278383 21.199875 243.300003 -94007741427144471488934860901981356032.000000
-14.815556 21.208588 243.399994 -101352377169204408905349003616796540928.000000
-14.405391 21.295723 244.399994 -106022898899480495486388244933058232320.000000
-13.940057 21.304436 244.500000 -105366063205671037965543925173786247168.000000
-13.457812 21.287008 244.300003 -98699022203649895554653012229934284800.000000
-12.992287 21.295723 244.399994 -94698276344510396260188569019265056768.000000
-12.521252 21.295723 244.399994 -92701787496379745907842533312551714816.000000
-12.050218 21.295723 244.399994 -86034807341587414451962892210453610496.000000
-11.583920 21.304436 244.500000 -82550223453848845605199876610949382144.000000
-11.112693 21.304436 244.500000 -88701153190493066697565421811764559872.000000
-10.593590 21.208588 243.399994 -106718747808162576995293027230178869248.000000
-10.124483 21.208588 243.399994 -116724486396245622700505109181847568384.000000
-9.667276 21.234728 243.699997 -109385063233453823763389920910612889600.000000
-9.224010 21.295723 244.399994 -104717107227992599118659308921638879232.000000
-8.756557 21.304436 244.500000 -107380775798830569343765877485780074496.000000
-8.251443 21.217300 243.500000 -106041132785714178338099373511964360704.000000
-7.814102 21.304436 244.500000 -96030222183182201456929185011217727488.000000
-7.342875 21.304436 244.500000 -95360385464816803215343115063871406080.000000
-6.849164 21.234728 243.699997 -105363497480856176029235295846498566144.000000
-6.379478 21.234728 243.699997 -112030487776853309310950148922222313472.000000
-5.909793 21.234728 243.699997 -118027671778099449828584567971476668416.000000
-5.442340 21.243441 243.800003 -112684696898619093940474567512452759552.000000
-5.023451 21.461277 246.300003 -99335088710025213764983210003889389568.000000
-4.552448 21.478704 246.500000 -98670474712132755828531306473749217280.000000
-4.077366 21.478704 246.500000 -107336550004689806876406460504350916608.000000
-3.602284 21.478704 246.500000 -99999733131532077178940749454906490880.000000
-3.127203 21.478704 246.500000 -98654877539147547693975291037510270976.000000
-2.652121 21.478704 246.500000 -110680450028815046824191371982122516480.000000
-2.177922 21.487417 246.600006 -126039517666481112595264879464596635648.000000
-1.702647 21.487417 246.600006 -122711224956545882607871195396689625088.000000
-1.229861 21.530987 247.100006 -111360661199692712895199290948501635072.000000
-0.753623 21.530987 247.100006 -108681365032255129058031071027244564480.000000
-0.279181 21.670403 248.699997 -122685182342614793863046847126038380544.000000
0.200865 21.748823 249.600006 -130678814627172377429686453987503505408.000000
0.682468 21.766251 249.800003 -119328271152728811368684973486566801408.000000
1.164842 21.783676 250.000000 -106645883251661458369294996729933856768.000000
1.647328 21.792391 250.100006 -95970378933646627203343328646298337280.000000
2.131052 21.809816 250.300003 -90635243205478082685852183799896473600.000000
2.615546 21.827244 250.500000 -84185822317299320872775012888717819904.000000
3.108232 21.896952 251.300003 -84192338041384493971898705943193452544.000000
3.593994 21.905664 251.399994 -99335200263278033849170541713771462656.000000
4.085009 21.940519 251.800003 -120029464476341455092746465884401303552.000000
4.577566 21.975372 252.199997 -128713763513927387166497536520283488256.000000
5.081704 22.053795 253.100006 -126719840390611598750460130140857827328.000000
5.573907 22.071222 253.300003 -119395872423937782386207989675103092736.000000
6.066881 22.088650 253.500000 -112723608701443699670182910314044981248.000000
6.558040 22.097363 253.600006 -81209277295915419979708634026238541824.000000
7.046806 22.097363 253.600006 -61521091587626734370006977334774595584.000000
7.535572 22.097363 253.600006 -54176491339783603344016076527649161216.000000
8.021173 22.088650 253.500000 -52509764048193923675257787205969510400.000000
8.472820 21.992800 252.399994 -53179615978366524655596675113754296320.000000
8.941525 21.949232 251.899994 -57524376857395960845039293640298463232.000000
9.427015 21.949232 251.899994 -62866063803866484852077373448865710080.000000
9.912504 21.949232 251.899994 -66877194256723053801798877652193378304.000000
10.402121 21.957945 252.000000 -70883122271516286098056639385566183424.000000
10.935329 22.053795 253.100006 -81892251945101583590811815805605380096.000000
11.436671 22.079935 253.399994 -93384939616649941471061924630367305728.000000
11.939171 22.106075 253.699997 -92040073883060610160261254239345442816.000000
12.442825 22.132215 254.000000 -88026326999365170145055060840601878528.000000
12.988368 22.228064 255.100006 -78871511553191325707891655882573873152.000000
13.506446 22.271631 255.600006 -67863664742013459183290794126178516992.000000
14.031928 22.323912 256.200012 -57855355358513150628852476860409315328.000000
14.605080 22.445900 257.600006 -52187887278386372578547350314873257984.000000
15.177767 22.559175 258.899994 -51854266993418307164661447965282402304.000000
15.700967 22.594030 259.299988 -49521597206107130375038486568503345152.000000
16.206966 22.602743 259.399994 -46856610278644922791354361433028558848.000000
16.706911 22.602743 259.399994 -46190688065333029322160113305180438528.000000
17.200222 22.594030 259.299988 -44861449928343311623421094271274450944.000000
17.699972 22.594030 259.299988 -45858386136989201266851767526923173888.000000
18.206741 22.602743 259.399994 -47191533708430022825065002393514541056.000000
18.721109 22.620171 259.600006 -49193209782816807092121962609744281600.000000
19.339909 22.759586 261.200012 -51527187785547419414487268604231286784.000000
20.010454 22.951281 263.399994 -53862463862492665443759707222800596992.000000
20.541477 22.977421 263.700012 -55530519651911384296930765089439481856.000000
21.065674 22.994848 263.899994 -56863662152749804942226393969218027520.000000
21.631517 23.055843 264.600006 -56530031726576937702505279646001528832.000000
22.191690 23.108126 265.200012 -51520641637847840837857939628878725120.000000
22.617207 23.020988 264.200012 -50187483925202217453809492788661714944.000000
22.960089 22.855433 262.299988 -50187483925202217453809492788661714944.000000
22.839396 22.245491 255.300003 -51188314356492008217961563916557352960.000000
23.203493 22.123503 253.899994 -52852470852664425037493617924136501248.000000
23.674173 22.106075 253.699997 -53186091137632490451379520273727356928.000000
24.153608 22.097363 253.600006 -54520546924492747542335099738026672128.000000
24.516052 21.984085 252.300003 -55857603930384672960022550437303418880.000000
24.972584 21.957945 252.000000 -57189458498213261724246258666625302528.000000
25.448164 21.949232 251.899994 -57859300287181060878749934600784445440.000000
26.036604 22.036366 252.899994 -58861459216299890827314774273639317504.000000
26.576462 22.079935 253.399994 -60865746650923145246938817698472132608.000000
27.075521 22.088650 253.500000 -63869556301416754897972587653492637696.000000
27.553223 22.079935 253.399994 -65540233592276745729545940702360240128.000000
28.030537 22.071222 253.300003 -65873833594835207491761419104699809792.000000
28.462429 22.027653 252.800003 -66202180453306323471337095168956301312.000000
29.006910 22.071222 253.300003 -66531810174184870419067085896856633344.000000
29.506742 22.079935 253.399994 -65861943032205066699975380028633382912.000000
29.924101 22.027653 252.800003 -62528447884206500059117953490771509248.000000
30.567713 22.140930 254.100006 -57526896946789214565089469086270750720.000000
32.267471 23.003561 264.000000 -51192208579135909338682961788804268032.000000
33.161156 23.273680 267.100006 -47191488073008414608806548512199147520.000000
33.688545 23.282394 267.200012 -47194089292040082935538419747176579072.000000
34.203526 23.282394 267.200012 -47530295584232613937403375371306401792.000000
34.718502 23.282394 267.200012 -45531251152491903474583922310931021824.000000
35.233482 23.282394 267.200012 -45532549226706537181491054935013326848.000000
35.748455 23.282394 267.200012 -45532549226706537181491054935013326848.000000
36.249863 23.273680 267.100006 -45864856225652766149717006700083412992.000000
36.764645 23.273680 267.100006 -46529470223545224086168910230223585280.000000
37.265476 23.264967 267.000000 -46861777222491453054394861995293671424.000000
37.737617 23.238827 266.700012 -47194084221437682022620813760363757568.000000
38.208603 23.212687 266.399994 -47192786147223048315713681136281452544.000000
38.634827 23.160406 265.799988 -47525093146169277283939632901351538688.000000
39.102921 23.134266 265.500000 -47858703289932540871990323277316751360.000000
39.569862 23.108126 265.200012 -48192318504298205372958619640094785536.000000
40.020527 23.073269 264.799988 -48525938789266270786844521989685641216.000000
40.377819 22.986135 263.799988 -48858261000019702493823291715194191872.000000
40.808746 22.942568 263.299988 -48856978137612271525668977051550351360.000000
41.300518 22.933855 263.200012 -48856993349419474264421795011988815872.000000
41.807785 22.933855 263.200012 -48857003490624276090257006985614458880.000000
42.298973 22.925140 263.100006 -49522925703936169559451255113462579200.000000
42.806049 22.925140 263.100006 -50190145991462696735552635865393004544.000000
43.313126 22.925140 263.100006 -50525059280042994943428064852253343744.000000
43.820202 22.925140 263.100006 -50191449136279731355377374476288131072.000000
44.293579 22.907715 262.899994 -49524228848753204179275993724357705728.000000
44.680984 22.846720 262.200012 -49190618704989940591225303348392493056.000000
45.065689 22.785727 261.500000 -49522925703936169559451255113462579200.000000
45.534828 22.768299 261.299988 -48857013631829077916092218959240101888.000000
46.020817 22.759586 261.200012 -48855725698819246035020298308783439872.000000
46.524227 22.759586 261.200012 -50190171344474701300140665799457112064.000000
46.991634 22.742159 261.000000 -51856923989076385533486985055200870400.000000
47.367283 22.681164 260.299988 -51856929059678786446404591042013691904.000000
47.740231 22.620171 259.600006 -51189713842754660183220816276896088064.000000
48.203396 22.602743 259.399994 -54523214061355627736995848801570783232.000000
48.684566 22.594030 259.299988 -59526068143589947850849071816966668288.000000
49.165344 22.585318 259.200012 -64196605085673237170641131093666824192.000000
49.626583 22.567888 259.000000 -67199091308940208550179738490540916736.000000
49.970928 22.498180 258.200012 -70868797819733707105819726639345434624.000000
50.273098 22.411047 257.200012 -72535535252528188600413227934650728448.000000
50.610889 22.341339 256.399994 -69866654102422079896007704926929027072.000000
50.965530 22.280344 255.699997 -67531362813669631127982448347921252352.000000
51.418091 22.262918 255.500000 -70198940818958705212563232744747827200.000000
51.849567 22.236778 255.199997 -75536657483749314405115824878875836416.000000
52.197849 22.175783 254.500000 -90012086452815488763746828451384918016.000000
52.564133 22.123503 253.899994 -82869468581010322897672806346191273984.000000
53.011684 22.106075 253.699997 -68857872966567657677049446476529270784.000000
53.479557 22.097363 253.600006 -55849703931844050634392422982927515648.000000
53.947044 22.088650 253.500000 -53849371567093508290501049272095473664.000000
54.328247 22.045082 253.000000 -55183842565760968120209446696833253376.000000
54.620861 21.966660 252.100006 -54184340632300216540470144113896849408.000000
55.063015 21.949232 251.899994 -53186121561246895928885156194604285952.000000
55.548508 21.949232 251.899994 -53519736775612560429853452557382320128.000000
56.033993 21.949232 251.899994 -53854639922988056811893669570617016320.000000
56.519482 21.949232 251.899994 -53184803204622658570307599623270694912.000000
57.004974 21.949232 251.899994 -56854494503608954387194769811636748288.000000
57.558929 21.975372 252.199997 -64195200528808184292464272746515267584.000000
58.183090 22.027653 252.800003 -68195900752526075370670262075869102080.000000
58.670315 22.027653 252.800003 -68194597607709040750845523464973975552.000000
59.765965 22.254204 255.399994 -67859724883947949846310942372616208384.000000
63.655682 23.508944 269.799988 -66856343939650499884603059877871353856.000000
65.864510 24.127600 276.899994 -65856826794382545566110939334496485376.000000
67.333366 24.467426 280.799988 -65190904581070652096916691206648365056.000000
68.092102 24.545847 281.700012 -64859880444531854096845054105222119424.000000
68.829941 24.615555 282.500000 -64196549309046827128547465238725787648.000000
69.865547 24.789825 284.500000 -63531920099347166453342743748147150848.000000
70.834625 24.937954 286.200012 -62865992815432872071230889633486209024.000000
72.882782 25.460762 292.200012 -61534148388809085132842393377789968384.000000
73.596764 25.513042 292.799988 -61534148388809085132842393377789968384.000000
73.021301 25.120935 288.299988 -63534506106571632041321797022686117888.000000
73.551422 25.112223 288.200012 -64867648607410052686617425902464663552.000000
75.109718 25.452047 292.100006 -62532382671669608483180199257520996352.000000
80.387657 27.037899 310.299988 -56861010227694127486318462866112380928.000000
84.326393 28.153223 323.100006 -51855565067632940871568580589364707328.000000
84.870224 28.127083 322.799988 -49186699129334034905915875542081470464.000000
92.643204 30.479719 349.799988 -55529206365889547851270814504918712320.000000
95.584961 31.220366 358.299988 -57533468447500797706306827995687419904.000000
96.087425 31.159372 357.600006 -58199370378403087523830652176284254208.000000
93.177277 30.000479 344.299988 -56862303231306360280307989503381864448.000000
78.414207 25.068655 287.700012 -54190805650361380510417777300244267008.000000
78.721657 24.990234 286.799988 -53184762639803451266966751728768122880.000000
79.274414 24.990234 286.799988 -53848093775288478235264340595264454656.000000
79.799324 24.981520 286.700012 -55512260412665696880631606576469245952.000000
80.267815 24.955379 286.399994 -55847188913053197827259853523768049664.000000
80.565819 24.876959 285.500000 -56182117413440698773888100471066853376.000000
81.201302 24.903099 285.799988 -58519994709417613129892410324613595136.000000
82.324226 25.077368 287.799988 -61862596659328219370770189178302889984.000000
85.816238 25.966143 298.000000 -65868509462314248928275132951237230592.000000
98.450462 29.590946 339.600006 -67541742336784299870321903353766871040.000000
101.848167 30.410011 349.000000 -67545621347620998252290483265575321600.000000
102.755806 30.479719 349.799988 -68210245486718258014577598769341136896.000000
110.792488 32.649372 374.700012 -69542105125149247691718912985475842048.000000
111.544411 32.658089 374.799988 -69540812121537014897729386348206358528.000000
112.057091 32.597092 374.100006 -69874422265300278485780076724171571200.000000
112.325905 32.466393 372.600006 -70208032409063542073830767100136783872.000000
112.315880 32.257267 370.200012 -70541642552826805661881457476101996544.000000
112.662979 32.152706 369.000000 -70541642552826805661881457476101996544.000000
113.159081 32.091713 368.299988 -70541642552826805661881457476101996544.000000
113.868912 32.091713 368.299988 -70541642552826805661881457476101996544.000000
114.609848 32.100426 368.399994 -70541642552826805661881457476101996544.000000
115.382484 32.117851 368.600006 -70541642552826805661881457476101996544.000000
116.250366 32.161423 369.100006 -70541642552826805661881457476101996544.000000
117.183556 32.222412 369.799988 -70541642552826805661881457476101996544.000000
118.788940 32.466393 372.600006 -70875252696590069249932147852067209216.000000
119.667427 32.509960 373.100006 -70875252696590069249932147852067209216.000000
120.354240 32.501247 373.000000 -70875252696590069249932147852067209216.000000
121.267883 32.553528 373.600006 -71204968617709431717261440355785506816.000000
121.987923 32.553528 373.600006 -70540349549214572867891930838832513024.000000
122.510902 32.501247 373.000000 -70206729264246507454006028489241657344.000000
123.229790 32.501247 373.000000 -69874422265300278485780076724171571200.000000
124.048363 32.527386 373.299988 -70209335553880576693655505711031910400.000000
124.533875 32.466393 372.600006 -70877853915621737576664019087044640768.000000
125.151138 32.440250 372.299988 -71878674205706726514980878241314635776.000000
125.665825 32.387970 371.700012 -72544591348416219071257520382349934592.000000
126.858223 32.509960 373.100006 -72541990129384550744525649147372503040.000000
127.919235 32.597092 374.100006 -72872993983513745092926862301547462656.000000
128.949722 32.675514 375.000000 -74203520053513294672737801985910112256.000000
130.121994 32.788788 376.299988 -72865180185213938286896036622989524992.000000
111.583519 27.961529 320.899994 -67524811595367651638435513385755869184.000000
107.271965 26.732927 306.799988 -59849171999178519873620157516765724672.000000
107.863266 26.732927 306.799988 -53511887483095947233399384971134631936.000000
108.454567 26.732927 306.799988 -52182684840323035925083607844918394880.000000
109.045860 26.732927 306.799988 -52524134135398110883753153833505652736.000000
109.637161 26.732927 306.799988 -50192767492903968713954931047621722112.000000
110.228455 26.732927 306.799988 -50192752281096765975202113087183257600.000000
110.169579 26.576086 305.000000 -58200688735027324882408208747617845248.000000
112.137329 26.907198 308.799988 -68878799342676225288009354053043617792.000000
116.967262 27.917961 320.399994 -74216546431081239958067582108048556032.000000
128.631271 30.540716 350.500000 -75884576867487954246650610040623333376.000000
136.205612 32.170132 369.200012 -73547997645725673597553432811158896640.000000
137.584717 32.326973 371.000000 -74213914788435166153830074952194195456.000000
136.324020 31.865160 365.700012 -73542790137059936031172084354391212032.000000
136.654144 31.778027 364.700012 -74207409205554794880541593871344205824.000000
137.545349 31.821594 365.200012 -74202201696889057314160245414576521216.000000
134.312195 30.915394 354.799988 -64861117671517676848740914887550566400.000000
130.658478 29.922058 343.399994 -55513533133868326022950709266487443456.000000
131.052643 29.861063 342.700012 -51183127130235874303250639407040954368.000000
131.482529 29.808783 342.100006 -51856888494859579143063743147511119872.000000
132.103226 29.800070 342.000000 -50526367495462430476170409449961291776.000000
132.645920 29.773930 341.700012 -52194408073073946590588649356161712128.000000
134.396820 30.017908 344.500000 -60868261669713998054071387157631598592.000000
136.236923 30.279310 347.500000 -71542472984116596426033528603997634560.000000
138.364365 30.601709 351.200012 -74879857284156663274694747027293601792.000000
144.227570 31.743172 364.299988 -73879016711662070684707463925772320768.000000
147.475815 32.300835 370.700012 -74211318640005898740015809704029585408.000000
149.949203 32.684227 375.100006 -75544450999639517559476226610182488064.000000
151.033646 32.762650 376.000000 -75876763069188147440619784362065395712.000000
151.758316 32.762650 376.000000 -76209070068134376408845736127135481856.000000
152.361328 32.736507 375.700012 -76542680211897639996896426503100694528.000000
153.126160 32.745224 375.799988 -76542685282500040909814032489913516032.000000
154.014206 32.780079 376.200012 -76542690353102441822731638476726337536.000000
155.356247 32.910778 377.700012 -76542685282500040909814032489913516032.000000
156.993317 33.102478 379.899994 -75543152925424883852569093986100183040.000000
157.642487 33.085049 379.700012 -75544440858434715733641014636556845056.000000
158.290848 33.067623 379.500000 -75878051002197979321691705012522057728.000000
158.603241 32.980488 378.500000 -75544440858434715733641014636556845056.000000
158.406616 32.788788 376.299988 -74875917426091153937714895273731293184.000000
158.370667 32.631947 374.500000 -74542307282327890349664204897766080512.000000
159.219894 32.658089 374.799988 -74542307282327890349664204897766080512.000000
161.094437 32.893349 377.500000 -74875917426091153937714895273731293184.000000
162.036346 32.936920 378.000000 -75872843493532241755310356555754373120.000000
163.453812 33.076336 379.600006 -75872843493532241755310356555754373120.000000
164.877457 33.215748 381.200012 -76203852418263837016629175696742154240.000000
166.567947 33.407444 383.399994 -76537462562027100604679866072707366912.000000
167.394150 33.424873 383.600006 -76537462562027100604679866072707366912.000000
168.221130 33.442299 383.799988 -76537462562027100604679866072707366912.000000
168.960815 33.442299 383.799988 -76537462562027100604679866072707366912.000000
169.744736 33.451015 383.899994 -76205135280671267984783490360385994752.000000
170.484634 33.451015 383.899994 -75540501000369206396661162882994536448.000000
171.001526 33.407444 383.399994 -75540501000369206396661162882994536448.000000
171.113342 33.285458 382.000000 -75540501000369206396661162882994536448.000000
171.804581 33.276745 381.899994 -75874111144132469984711853258959749120.000000
172.676163 33.302883 382.200012 -75874111144132469984711853258959749120.000000
174.229477 33.459728 384.000000 -75874116214734870897629459245772570624.000000
175.379654 33.538147 384.899994 -75874111144132469984711853258959749120.000000
175.938431 33.503296 384.500000 -75540501000369206396661162882994536448.000000
175.852386 33.346451 382.700012 -75540501000369206396661162882994536448.000000
176.636108 33.355164 382.799988 -74873285783445080133477388117876932608.000000
176.678833 33.224464 381.299988 -73538835067187223955439414640390438912.000000
177.041504 33.154758 380.500000 -73205229994026361280306330251238047744.000000
177.587952 33.119904 380.100006 -73872445210950487543490105016355651584.000000
177.945221 33.050194 379.299988 -73205235064628762193223936238050869248.000000
178.534927 33.024052 379.000000 -71535886271597810546063351734142500864.000000
178.650482 32.910778 377.700012 -76864536699295587441936439446945660928.000000
179.045975 32.849785 377.000000 -77531762057424515530955426185688907776.000000
179.248032 32.753937 375.899994 -70860882609385882041436781224531066880.000000
179.589478 32.684227 375.100006 -61857333374036071762295174866594168832.000000
179.543304 32.544811 373.500000 -56854514786018558038865193758888034304.000000
181.373199 32.745224 375.799988 -51854287275827910816331871912533688320.000000
181.419098 32.623234 374.399994 -49520324484904501232719383878485147648.000000
183.502853 32.867210 377.200012 -53859872784665798942863047961448808448.000000
187.013794 33.363880 382.899994 -71874815477279631784682722276757471232.000000
188.634384 33.520721 384.700012 -82547723646865195536820125112228380672.000000
190.704926 33.755985 387.399994 -88026266152136359190043788998848020480.000000
191.748077 33.808266 388.000000 -86686562291791157229366013183278448640.000000
192.545486 33.816978 388.100006 -87345933286801071209013326348961185792.000000
193.293488 33.816978 388.100006 -88007900430240252602474904762808532992.000000
193.941467 33.799553 387.899994 -87340659860304121774703100063626821632.000000
193.484497 33.590427 385.500000 -88675141000176383430246709461990244352.000000
193.421356 33.451015 383.899994 -88677797995834461799072246551908712448.000000
194.009506 33.424873 383.600006 -89342422134931721561359362055674527744.000000
193.733459 33.250603 381.600006 -89345028424565790801008839277464780800.000000
193.755447 33.128616 380.200012 -90009642422458248737460742807604953088.000000
193.772064 33.006626 378.799988 -90679448717209241501541176834074345472.000000
194.348083 32.980488 378.500000 -91344072856306501263828292337840160768.000000
193.995239 32.797504 376.399994 -92011283002628226614094461116144943104.000000
194.617218 32.780079 376.200012 -92013879151057494027908726364309553152.000000
195.446121 32.797504 376.399994 -92681099438584021204010107116239978496.000000
196.380020 32.832359 376.799988 -92683685445808486791989160390778945536.000000
-22.631203 21.525740 241.699997 -58517368137373940238572509155572056064.000000
-21.816889 21.187315 237.899994 -61192810646986830258360179099084783616.000000
-21.241671 21.071535 236.600006 -67203051449415321538830014191354511360.000000
-20.785667 21.071535 236.600006 -69540959169006641372339959965778182144.000000
-20.329666 21.071535 236.600006 -68877653386533618968630401033345957888.000000
-19.840065 21.035913 236.199997 -68541442023738687053847839422403313664.000000
-19.335594 20.982477 235.600006 -69206035739221541338629319005292199936.000000
-18.961662 21.071535 236.600006 -70539137675240754680584099990568173568.000000
-18.529123 21.098253 236.899994 -72532949245303723012434174660111761408.000000
-18.133575 21.169502 237.699997 -73860843672657198788007607188620050432.000000
-17.876225 21.409964 240.399994 -75524969745215210130034025275322269696.000000
-17.543280 21.570272 242.199997 -77526595113577985267914925623423795200.000000
-17.132889 21.641520 243.000000 -79867033063767360647310258817445396480.000000
-16.671412 21.650423 243.100006 -80870459643486418825276595193505644544.000000
-16.216213 21.668236 243.300003 -81541599506668851686687403751747092480.000000
-15.805551 21.748390 244.199997 -82874762289916875983653456578776924160.000000
-15.290943 21.686049 243.500000 -84875140290089026543803284170924359680.000000
-14.803382 21.659330 243.199997 -90014855001726387216759697251185459200.000000
-14.334660 21.659330 243.199997 -95360405747226406867013539011122692096.000000
-13.877341 21.677143 243.399994 -98699072909673904683829072098062499840.000000
-13.402725 21.668236 243.300003 -99374051218873828623867612673609826304.000000
-12.944443 21.686049 243.500000 -95370719352509863741424116188401631232.000000
-12.475142 21.686049 243.500000 -91372579783004433686609150199522656256.000000
-12.000912 21.677143 243.399994 -86034817482792216277798104184079253504.000000
-11.541281 21.694954 243.600006 -83549760881526403575362421101575536640.000000
-11.062698 21.677143 243.399994 -92704474915652229754173706323347111936.000000
-10.584886 21.659330 243.199997 -110049656948936678048171400493501775872.000000
-10.116164 21.659330 243.199997 -116057266108719095524403728429917143040.000000
-9.651409 21.668236 243.300003 -102712860358188552002376113391308636160.000000
-9.174946 21.650423 243.100006 -98042318345502861769666448127795658752.000000
-8.706418 21.650423 243.100006 -99374152630921846882219732409866256384.000000
-8.241277 21.659330 243.199997 -102043013498618351934954831470336671744.000000
-7.775751 21.668236 243.300003 -98701729905331983052654609187980967936.000000
-7.318850 21.703861 243.699997 -95363012036860476106663016232912945152.000000
-6.863216 21.748390 244.199997 -100698188329848227927495008973817380864.000000
-6.397803 21.766203 244.399994 -108034984920596353973290296076010520576.000000
-5.931618 21.784016 244.600006 -118702721075732986549469592362403495936.000000
-5.460198 21.784016 244.600006 -114699379068164219841190883903569657856.000000
-5.025490 21.944321 246.399994 -96676632718455382019175595883328700416.000000
-4.550601 21.944321 246.399994 -93343127429252013552482957371841183744.000000
-4.077366 21.953226 246.500000 -108681395455869534535536706948121493504.000000
-3.602284 21.953226 246.500000 -102676412868130789950624280180747665408.000000
-3.127203 21.953226 246.500000 -93999942840651867421656853183861882880.000000
-2.653197 21.962133 246.600006 -105350506597505037134328757632049872896.000000
-2.177922 21.962133 246.600006 -118713105669450056204726653355061936128.000000
-1.704028 21.979946 246.800003 -118715711959084125444376130576852189184.000000
-1.233843 22.077911 247.899994 -114029542349798821599604813956223336448.000000
-0.756063 22.077911 247.899994 -114019127332467346466842117042687967232.000000
-0.279293 22.158066 248.800003 -128022944642827011271857893141481783296.000000
0.201026 22.247124 249.800003 -135349356639858067662396119251016482816.000000
0.682468 22.247124 249.800003 -125333253740467555953597400253940629504.000000
1.164376 22.256031 249.899994 -115986967277032838834714327256959811584.000000
1.647328 22.273842 250.100006 -101975381803794975439926179360923451392.000000
2.131052 22.291655 250.300003 -98641906938206012450739176770312863744.000000
2.624943 22.389620 251.399994 -87971615199459319764086463130257850368.000000
3.110705 22.398525 251.500000 -83525127895062768621632537164888670208.000000
3.598283 22.416338 251.699997 -98000800253044186800308628104413184000.000000
4.086632 22.434151 251.899994 -122695779901632701860843359564835323904.000000
4.575751 22.451963 252.100006 -132714519514271688286797191704578359296.000000
5.065641 22.469774 252.300003 -127392283398611066231695677309994401792.000000
5.571706 22.549927 253.199997 -124069030867462343684402344134031966208.000000
6.064488 22.567739 253.399994 -110721947838864118141878768058253705216.000000
6.558040 22.585552 253.600006 -74870689635015812719663122869712322560.000000
7.046806 22.585552 253.600006 -54850201998383299054653120399991111680.000000
7.535572 22.585552 253.600006 -52177436766838091055361411493648138240.000000
8.024337 22.585552 253.600006 -52509774189398725501092999179595153408.000000
8.476177 22.487585 252.500000 -53846851477700254570450873826123186176.000000
