# .PCD v.7 - Point Cloud Data file format
VERSION .7
FIELDS x y z rgb
SIZE 4 4 4 4
TYPE F F F F
COUNT 1 1 1 1
WIDTH 604
HEIGHT 1
POINTS 604
DATA ascii
68.720474 -30.913202 273.399994 -49530927114524810143433502304094912512.000000
69.348717 -30.958429 273.799988 -51197684829728895289697427546651492352.000000
70.744125 -31.342865 277.200012 -51193780465880192343140817700778934272.000000
74.184021 -32.620552 288.500000 -63192027479209171760378235711096094720.000000
75.957649 -33.151978 293.200012 -65516878397618140831052765442504392704.000000
79.028259 -34.237446 302.799988 -71511440897423009370284889309530030080.000000
82.056992 -35.288990 312.100006 -67509361469852069978490071567088746496.000000
90.339050 -38.568005 341.100006 -72196712529496786533063583115105009664.000000
93.344063 -39.563019 349.899994 -72205738201770411526402239641927286784.000000
92.513702 -38.929829 344.299988 -72541939423360541615349589279244288000.000000
76.912521 -32.134350 284.200012 -77211158008819593576564091984610852864.000000
73.181145 -30.359159 268.500000 -78213271302516815308870477776150331392.000000
67.550209 -27.826403 246.100006 -81885563820534779452489519199493816320.000000
67.112366 -27.453274 242.800003 -85370112214056541908829292891308294144.000000
67.162811 -27.283669 241.300003 -94708569667384249482928722249292709888.000000
68.188400 -27.509809 243.300003 -95375779813705974833194891027597492224.000000
69.729645 -27.939472 247.100006 -92701726649150934952831261470797856768.000000
67.677223 -26.933153 238.199997 -83883320319265658034237051609412534272.000000
72.684456 -28.730959 254.100006 -80544632874408556565751094575221440512.000000
82.446938 -32.371796 286.299988 -78876597367399441364250460655833841664.000000
86.042686 -33.559025 296.799988 -78543002435443380514952588240307093504.000000
100.155563 -38.805450 343.200012 -75539223208564176341424454206163517440.000000
102.726425 -39.540401 349.700012 -73869884556738026520099081675880792064.000000
103.784798 -39.687393 351.000000 -73867308690718362757955240374967468032.000000
104.223190 -39.596939 350.200012 -73197507466569770906792412335310897152.000000
104.089386 -39.291649 347.500000 -72195399243474950087403632530584240128.000000
103.734146 -38.907215 344.100006 -71859198021884819998456282893267238912.000000
104.609711 -38.986362 344.799988 -71857899947670186291549150269184933888.000000
105.365837 -39.020283 345.100006 -71857889806465384465713938295559290880.000000
104.924866 -38.613232 341.500000 -72191484738421445315011810711086039040.000000
101.471024 -37.109409 328.200012 -70858316884571020105128151897243385856.000000
98.463676 -35.786499 316.500000 -70192379459451923897181085808956801024.000000
98.134583 -35.447289 313.500000 -69862658467730160516934187318425681920.000000
97.919914 -35.153305 310.899994 -69196736254418267047739939190577561600.000000
96.681183 -34.497501 305.100006 -67863608965387049141197128271237480448.000000
96.918518 -34.373127 304.000000 -67195105815453090996941432855663214592.000000
97.376122 -34.327900 303.600006 -66194295666572903884459785675018862592.000000
96.799652 -33.920849 300.000000 -64861173448144086890834580742491602944.000000
94.456512 -32.903225 291.000000 -62193630937071819196677038253354778624.000000
41.570274 -39.678574 357.000000 -123329402377650780044887471695010463744.000000
41.488914 -38.956135 350.500000 -119336475387413488469371460149711994880.000000
39.854713 -36.822159 331.299988 -104000783226815631248461551874345009152.000000
36.679806 -33.354450 300.100006 -80860257591455782035053349726108778496.000000
35.929760 -32.165207 289.399994 -65854286422579688194390339941272911872.000000
36.210144 -31.920689 287.200012 -56848090332776601372258408467043188736.000000
36.686863 -31.854002 286.600006 -54514107259443588136975496485743362048.000000
37.135284 -31.765085 285.799988 -57181675123527860395721068908944293888.000000
37.554249 -31.653940 284.799988 -60181544915955960709774987110402490368.000000
37.955975 -31.531683 283.700012 -61178465912794647614452842405612748800.000000
38.380608 -31.431652 282.799988 -61506868547892173636122184324810276864.000000
38.815536 -31.342737 282.000000 -63169711758042754009994287747868655616.000000
39.079899 -31.120447 280.000000 -67167825974536179500221223802683523072.000000
39.548794 -31.064875 279.500000 -68834568477933061907732331084801638400.000000
39.958393 -30.964846 278.600006 -70506503278188479142871968863248973824.000000
40.320919 -30.831472 277.399994 -71843529860465999083053783641648791552.000000
40.723007 -30.731443 276.500000 -72512048222207159966062297017661521920.000000
41.166382 -30.664757 275.899994 -73845185652443179698440319910627246080.000000
41.637672 -30.620298 275.500000 -75179621156893833137725475427675275264.000000
42.122726 -30.586954 275.200012 -76179143372764188369135201957862965248.000000
42.591125 -30.542498 274.799988 -76512748445925051044268286347015356416.000000
43.089371 -30.520267 274.600006 -76512743375322650131350680360202534912.000000
43.539185 -30.464695 274.100006 -75846816091408355749238826245541593088.000000
44.067459 -30.464695 274.100006 -75514493880654924042260056520033042432.000000
44.530659 -30.420237 273.700012 -75517090029084191456074321768197652480.000000
45.025234 -30.398008 273.500000 -75518388103298825162981454392279957504.000000
45.535702 -30.386894 273.399994 -75187379178567229901662635251292176384.000000
46.062626 -30.386894 273.399994 -74524053113684603846282652371608666112.000000
46.589554 -30.386894 273.399994 -74190448040523741171149567982456274944.000000
47.116478 -30.386894 273.399994 -73856842967362878496016483593303883776.000000
47.643406 -30.386894 273.399994 -74187856962696874670252908721104486400.000000
48.170334 -30.386894 273.399994 -74518865887428469931571727862092267520.000000
48.697258 -30.386894 273.399994 -74517567813213836224664595238009962496.000000
49.224186 -30.386894 273.399994 -74517567813213836224664595238009962496.000000
49.751114 -30.386894 273.399994 -74517557672009034398829383264384319488.000000
50.278038 -30.386894 273.399994 -74517557672009034398829383264384319488.000000
50.786385 -30.375780 273.299988 -74517557672009034398829383264384319488.000000
51.219242 -30.320208 272.799988 -74851167815772297986880073640349532160.000000
51.574299 -30.220177 271.899994 -75184772888933160662013158029501923328.000000
52.060013 -30.197948 271.700012 -75184772888933160662013158029501923328.000000
52.544956 -30.175718 271.500000 -75186060821942992543085078679958585344.000000
53.048672 -30.164606 271.399994 -75186060821942992543085078679958585344.000000
53.571743 -30.164606 271.399994 -75186060821942992543085078679958585344.000000
54.114750 -30.175718 271.500000 -75186060821942992543085078679958585344.000000
54.658138 -30.186834 271.600006 -75186060821942992543085078679958585344.000000
55.242546 -30.220177 271.899994 -75186060821942992543085078679958585344.000000
55.951172 -30.320208 272.799988 -74852440536974927129199176330367729664.000000
56.683971 -30.431353 273.799988 -74185220249448399953097795578437304320.000000
57.169876 -30.409122 273.600006 -75183459602911324216353207444981153792.000000
57.570656 -30.342436 273.000000 -77182519246459237417925478465794998272.000000
58.352184 -30.475809 274.200012 -75845487593579316564826057700582359040.000000
59.116863 -30.598068 275.299988 -73507615368204803121739353833848438784.000000
59.755783 -30.653641 275.799988 -73507620438807204034656959820661260288.000000
60.505928 -30.764786 276.799988 -74174850867538533036593552546217328640.000000
61.304028 -30.898159 278.000000 -72506810289927016922175312640016908288.000000
62.195732 -31.075989 279.600006 -77512275732397807188595618864015867904.000000
63.183357 -31.298279 281.600006 -81184598674030176809720296208236281856.000000
64.676537 -31.765085 285.799988 -92649905092613604934898076243762085888.000000
65.752296 -32.020718 288.100006 -100659175114975603939434546435968729088.000000
66.606750 -32.165207 289.399994 -107333994421079746765933043150688878592.000000
67.698303 -32.420837 291.700012 -121356025335263490770989523881137537024.000000
70.038971 -33.265537 299.299988 -150726698728577023588521603206899302400.000000
70.261909 -33.098820 297.799988 -165423738375575097011122260433772216320.000000
71.049934 -33.198849 298.700012 -158746353344656092248315134391764385792.000000
73.064377 -33.865719 304.700012 -144726969284925624786248978777608552448.000000
74.642670 -34.321407 308.799988 -115364135042923903339335755064468832256.000000
74.506889 -33.987976 305.799988 -94682983407669242900688912791795400704.000000
74.040291 -33.510056 301.500000 -82206390975645341575255516820336017408.000000
71.131630 -31.942917 287.399994 -70201663732447995449317647663232974848.000000
68.617569 -30.575840 275.100006 -55861655341703002381189733900747800576.000000
68.268036 -30.186834 271.600006 -47860229541255215660189725307976024064.000000
68.715508 -30.153492 271.299988 -46859399109965424896037654180080386048.000000
69.340469 -30.197948 271.700012 -44862925473641977282444436433805508608.000000
73.695465 -31.854002 286.600006 -58525339124348175345049120425327460352.000000
75.128639 -32.231892 290.000000 -64854819983335743005074279266026258432.000000
78.584572 -33.465595 301.100006 -72853649635354262312260022610633424896.000000
82.188454 -34.743759 312.600006 -74521669930556174775007838569582559232.000000
78.367996 -32.887646 295.899994 -78201755964464342072987281724232695808.000000
74.216400 -30.920389 278.200012 -81545630635577577456184163267940188160.000000
73.489685 -30.398008 273.500000 -81880523641748272012389168307549241344.000000
70.255074 -28.853102 259.600006 -89368545878501224912865406115330916352.000000
67.321198 -27.452681 247.000000 -81881786221746099328873059023941795840.000000
66.507172 -26.930302 242.300003 -84551945163657238088515290708494516224.000000
66.310776 -26.663555 239.899994 -83884714734925909086578697982938447872.000000
65.882462 -26.307894 236.699997 -90700258469462588115396146713893797888.000000
65.974312 -26.163404 235.399994 -84550616665828198904102522163535282176.000000
66.569099 -26.218977 235.899994 -83882098304087038021094008787522551808.000000
67.591988 -26.441267 237.899994 -81544236219917326403842516894414274560.000000
67.821655 -26.352350 237.100006 -82543778718197285286922667371853250560.000000
72.569427 -28.008404 252.000000 -79207692492371852145168581572639588352.000000
80.795486 -30.975962 278.700012 -78872794415598756676045970546217713664.000000
97.966850 -37.311195 335.700012 -75203082834202857207488376410600374272.000000
101.140144 -38.267036 344.299988 -75201764477578619848910819839266783232.000000
103.104729 -38.756073 348.700012 -74200918834481626346005930750932680704.000000
103.449409 -38.633812 347.600006 -72531570041450674698845346247024312320.000000
99.087105 -36.766586 330.799988 -69861406028937135026285508575658770432.000000
87.364594 -32.209663 289.799988 -67523543944767423409034016682550493184.000000
80.884415 -29.631111 266.600006 -66186507221285101643016989930525032448.000000
78.589302 -28.608583 257.399994 -65185671719392909965947312815816572928.000000
78.347992 -28.341837 255.000000 -64519734294273813758000246727529988096.000000
78.839462 -28.341837 255.000000 -63852488653735282017310836041535455232.000000
80.357559 -28.708612 258.299988 -64188674663518209367505367718413991936.000000
83.015282 -29.475510 265.200012 -64526173959322973163359849979813298176.000000
85.447639 -30.153492 271.299988 -64861092318505672284152884953486458880.000000
86.762726 -30.431353 273.799988 -64193887242786347846804322161994498048.000000
87.704880 -30.575840 275.100006 -62193544736831003677077736477536813056.000000
89.485962 -31.009304 279.000000 -61192734587950816564596089296892461056.000000
91.540207 -31.531683 283.700012 -60194530728704698691763919338038362112.000000
92.346657 -31.620598 284.500000 -59192417435007476959457533546498883584.000000
34.432297 -32.296181 295.700012 -80848579994126479585806762096180854784.000000
35.345474 -32.612919 298.600006 -83518744006640019258366599767546396672.000000
35.716465 -32.427246 296.899994 -82185586293994395874318152927329386496.000000
35.604221 -31.815617 291.299988 -75849579569716853289334089058529312768.000000
35.818020 -31.509802 288.500000 -68846337346105580789495826477360349184.000000
36.285793 -31.433348 287.799988 -64844293412751447788124250642608816128.000000
36.712467 -31.324127 286.799988 -64844273130341844136453826695357530112.000000
37.122292 -31.203987 285.700012 -66179996567802329456810902862862221312.000000
37.541061 -31.094769 284.700012 -67846728929994410038486798171354693632.000000
37.955975 -30.985548 283.700012 -68844942930445329737154180103834435584.000000
38.353470 -30.865406 282.600006 -68176414427499367028310454754196062208.000000
38.691658 -30.701578 281.100006 -70509079144208142905015810164162297856.000000
39.079899 -30.581436 280.000000 -71842206433239360811558621083502379008.000000
39.421448 -30.428530 278.600006 -74509789509130835809057011467141775360.000000
39.843655 -30.341154 277.799988 -74509789509130835809057011467141775360.000000
40.219173 -30.221012 276.700012 -75511928155840062105951427192745361408.000000
40.649364 -30.144560 276.000000 -75845543370205726606919723555523395584.000000
41.106697 -30.089951 275.500000 -75513236371259497638693771790453309440.000000
41.607445 -30.068106 275.299988 -74848612232162237876406656286687494144.000000
42.122726 -30.057182 275.200012 -74182684948247943494294802172026552320.000000
42.622124 -30.035339 275.000000 -74183983022462577201201934796108857344.000000
43.026600 -29.947966 274.200012 -74518886169838073583242151809343553536.000000
43.523300 -29.926121 274.000000 -74852486172396535345457630211683123200.000000
44.019230 -29.904276 273.799988 -74853774105406367226529550862139785216.000000
44.514385 -29.882433 273.600006 -74855072179621000933436683486222090240.000000
44.992310 -29.849667 273.299988 -75188677252781863608569767875374481408.000000
45.519043 -29.849667 273.299988 -75188672182179462695652161888561659904.000000
46.045780 -29.849667 273.299988 -74856355042028431901590998149865930752.000000
46.572510 -29.849667 273.299988 -74522749968867569226457913760713539584.000000
47.099247 -29.849667 273.299988 -74522749968867569226457913760713539584.000000
47.591129 -29.827824 273.100006 -74853763964201565400694338888514142208.000000
48.099857 -29.816900 273.000000 -74852476031191733519622418238057480192.000000
48.643826 -29.827824 273.100006 -74851177956977099812715285613975175168.000000
49.152168 -29.816900 273.000000 -74851177956977099812715285613975175168.000000
49.678322 -29.816900 273.000000 -74851167815772297986880073640349532160.000000
50.186089 -29.805979 272.899994 -74851167815772297986880073640349532160.000000
50.712055 -29.805979 272.899994 -74851167815772297986880073640349532160.000000
51.087811 -29.718603 272.100006 -75184777959535561574930764016314744832.000000
51.498425 -29.653070 271.500000 -75518383032696424250063848405467136000.000000
52.002525 -29.642151 271.399994 -75518383032696424250063848405467136000.000000
52.486897 -29.620306 271.200012 -75519676036308657044053375042736619520.000000
53.009579 -29.620306 271.200012 -75519670965706256131135769055923798016.000000
53.552006 -29.631227 271.299988 -75519670965706256131135769055923798016.000000
54.074886 -29.631227 271.299988 -75519670965706256131135769055923798016.000000
54.617886 -29.642151 271.399994 -75519670965706256131135769055923798016.000000
55.161278 -29.653070 271.500000 -75519670965706256131135769055923798016.000000
56.053722 -29.849667 273.299988 -74186523394265434572922534189332430848.000000
56.539051 -29.827824 273.100006 -74520133538028698160973224565297643520.000000
56.981815 -29.784136 272.700012 -76184290034201114980505278572876791808.000000
57.528481 -29.795057 272.799988 -76184295104803515893422884559689613312.000000
58.267059 -29.904276 273.799988 -74180043164397067864222083042546548736.000000
58.945072 -29.980730 274.500000 -73845140017021571482181866029311852544.000000
59.669117 -30.079027 275.399994 -79181614384223957009920991394298593280.000000
60.549641 -30.253778 277.000000 -85972449073260987391244466386374754304.000000
61.568645 -30.494062 279.200012 -97317820533255622276287840338233524224.000000
62.751846 -30.810799 282.100006 -112001899720516962281487595271534673920.000000
63.766720 -31.040157 284.200012 -116675078446451127231352373677714833408.000000
64.721802 -31.236753 286.000000 -118017348031611191128338778820572086272.000000
65.683823 -31.433348 287.799988 -109348717155444079969990207436308348928.000000
66.307549 -31.466114 288.100006 -108684113298756423859373515879793819648.000000
67.396599 -31.717319 290.399994 -125372429214617009155021254369799569408.000000
69.570953 -32.470932 297.299988 -151409637883546380809201543078576390144.000000
70.191132 -32.492775 297.500000 -165434264946159392228072289057189658624.000000
70.740715 -32.481853 297.399994 -170102200669211013221132477098912382976.000000
71.457771 -32.547386 298.000000 -163411804472531265911748388895204573184.000000
73.192360 -33.071636 302.799988 -128705985209844386750889952749415301120.000000
73.142464 -32.787670 300.200012 -91341669390768468540883054588562767872.000000
70.479485 -31.345972 287.000000 -73859616586876177861946958379917246464.000000
68.508125 -30.231936 276.799988 -61523865207140033735937452121387958272.000000
67.644806 -29.620306 271.200012 -50854856330800772017439053144976785408.000000
68.066948 -29.576618 270.799988 -46523131970544082939161426714196705280.000000
68.690178 -29.620306 271.200012 -45858517972651625002709523184056532992.000000
69.161819 -29.598463 271.000000 -46192123045812487677842607573208924160.000000
73.078331 -31.040157 284.200012 -61531689146644642367803489773571538944.000000
75.646774 -31.892069 292.000000 -70533955519587021678790781467864596480.000000
76.418343 -31.979445 292.799988 -76864739523391623958640678919458521088.000000
76.719742 -31.870224 291.799988 -79201308603949102781902644175297314816.000000
76.302200 -31.466114 288.100006 -78875512258485645999882779477890039808.000000
73.362724 -30.035339 275.000000 -81549605987859893183587256929192247296.000000
72.173042 -29.336336 268.600006 -83884851641190733735354059626884628480.000000
70.255074 -28.353359 259.600006 -87372229430852205599717973960253505536.000000
67.839050 -27.184711 248.899994 -83552514218630099289622471940937613312.000000
66.562073 -26.485708 242.500000 -83884806005769125519095605745569234944.000000
65.149857 -25.743017 235.699997 -83551175579596258279374491422352736256.000000
65.353622 -25.644720 234.800003 -84884297798025075272999696354879995904.000000
65.778122 -25.633797 234.699997 -79545227282393422331446305741728645120.000000
66.399780 -25.699329 235.300003 -77874575344545436064460982626925150208.000000
67.052162 -25.775782 236.000000 -77538369052352905062596027002795327488.000000
68.336540 -26.092518 238.899994 -79203833763944757414870425608082423808.000000
71.676720 -27.184711 248.899994 -76202655756097221568074162808916279296.000000
85.665817 -32.274338 295.500000 -73531183528164246362771980539842789376.000000
93.793701 -35.103119 321.399994 -71197210596036034953324280532168605696.000000
97.409447 -36.217159 331.600006 -70531252888507335093706790496630734848.000000
97.131927 -35.878578 328.500000 -68863156534269408937194884735489277952.000000
94.104439 -34.535179 316.200012 -67861017887560182640300469009885691904.000000
86.326797 -31.477036 288.200012 -66191679235734032818975096479602966528.000000
77.989029 -28.255062 258.700012 -64188730440144619409599033573355028480.000000
75.514374 -27.184711 248.899994 -62851693716662297643582006821329567744.000000
75.933014 -27.162868 248.699997 -61517237929802040552626427357030252544.000000
76.811768 -27.304853 250.000000 -60851300504682944344679361268743667712.000000
77.942856 -27.534214 252.100006 -61519803654616902488935056684317933568.000000
79.050934 -27.752653 254.100006 -61519783372207298837264632737066647552.000000
80.698868 -28.156765 257.799988 -61523672524248799045068424622500741120.000000
83.778374 -29.052364 266.000000 -62193504172011796373736888583034241024.000000
85.463501 -29.456476 269.700012 -61861212384872770144263754778402619392.000000
86.302109 -29.565695 270.700012 -59193654661993299711353394328827330560.000000
87.369087 -29.751369 272.399994 -56524798864899195571535901255169736704.000000
89.249283 -30.210091 276.600006 -55523988716019008459054254074525384704.000000
91.113213 -30.657890 280.700012 -56858429291072062811257015578386235392.000000
33.745281 -31.093910 289.799988 -66511096763377141150646629766480789504.000000
34.232792 -31.029533 289.200012 -70179489988148803260626667330764537856.000000
34.766113 -31.008076 289.000000 -71513915351394654874076610874186924032.000000
35.274216 -30.965157 288.600006 -71180289995824188547273102537783246848.000000
35.780773 -30.922239 288.200012 -70511746281071023099676559227706408960.000000
36.273186 -30.868593 287.700012 -70511720928059018535088529293642301440.000000
36.686863 -30.750568 286.600006 -71511233002724571940663043850204348416.000000
37.109295 -30.643274 285.600006 -72513351367024194585887035628556648448.000000
37.541061 -30.546709 284.700012 -73180561513345919936153204406861430784.000000
37.969357 -30.450144 283.799988 -73847766589065244373501767198353391616.000000
38.326324 -30.299931 282.399994 -73515454519516614492358209446470483968.000000
38.677895 -30.149719 281.000000 -74185270955472409082273855446565519360.000000
39.038029 -30.010237 279.700012 -74183962740052973549531510848857571328.000000
39.449745 -29.913671 278.799988 -74517577954418638050499807211635605504.000000
39.843655 -29.806379 277.799988 -74847293875538000517829099715353903104.000000
40.204639 -29.677624 276.600006 -76176547224334920955320936709698355200.000000
40.575726 -29.559601 275.500000 -76843772582463849044339923448441602048.000000
41.061932 -29.527412 275.200012 -76846368730893116458154188696606212096.000000
41.577217 -29.516682 275.100006 -76183042666010490402774205816922701824.000000
42.046192 -29.473766 274.700012 -74853799458418371791117580796203892736.000000
42.529133 -29.441578 274.399994 -74189180389923512941748071279250898944.000000
43.010910 -29.409388 274.100006 -74190478464138146648655203903333203968.000000
43.475647 -29.366470 273.700012 -74193064471362612236634257177872171008.000000
43.987076 -29.355742 273.600006 -74524068325491806585035470332047130624.000000
44.498116 -29.345011 273.500000 -74524063254889405672117864345234309120.000000
44.992310 -29.323553 273.299988 -74857663257447867434333342747573878784.000000
45.519043 -29.323553 273.299988 -75189965185791695489641688525831143424.000000
46.028931 -29.312824 273.200012 -75189955044586893663806476552205500416.000000
46.555470 -29.312824 273.200012 -75520963969318488925125295693193281536.000000
47.064781 -29.302095 273.100006 -75520969039920889838042901680006103040.000000
47.573700 -29.291365 273.000000 -75518383032696424250063848405467136000.000000
48.082237 -29.280636 272.899994 -75518393173901226075899060379092779008.000000
48.554764 -29.248447 272.600006 -75184788100740363400765975989940387840.000000
49.152168 -29.291365 273.000000 -74851177956977099812715285613975175168.000000
49.678322 -29.291365 273.000000 -74851167815772297986880073640349532160.000000
50.186089 -29.280636 272.899994 -74851167815772297986880073640349532160.000000
50.581974 -29.205528 272.200012 -75184777959535561574930764016314744832.000000
50.975163 -29.130423 271.500000 -75518388103298825162981454392279957504.000000
51.403584 -29.076777 271.000000 -75851993176459687838114538781432348672.000000
51.925884 -29.076777 271.000000 -75851993176459687838114538781432348672.000000
52.448189 -29.076777 271.000000 -75853281109469519719186459431889010688.000000
52.970490 -29.076777 271.000000 -75853281109469519719186459431889010688.000000
53.512527 -29.087505 271.100006 -75853281109469519719186459431889010688.000000
54.035023 -29.087505 271.100006 -75853281109469519719186459431889010688.000000
54.557514 -29.087505 271.100006 -75853281109469519719186459431889010688.000000
55.100327 -29.098234 271.200012 -75853276038867118806268853445076189184.000000
55.828114 -29.205528 272.200012 -74522734757060366487705095800275075072.000000
56.394131 -29.226988 272.399994 -75188651899769859043981737941310373888.000000
56.940025 -29.237717 272.500000 -75519670965706256131135769055923798016.000000
57.549568 -29.280636 272.899994 -74183947528245770810778692888419106816.000000
58.160656 -29.323553 273.299988 -73850347525687309048563214486079537152.000000
58.859180 -29.409388 274.100006 -79521730110867591871260162851113795584.000000
59.820782 -29.623978 276.100006 -96658388691016897341629255330796929024.000000
60.964966 -29.924402 278.899994 -116010423883739461991559622253072089088.000000
61.965584 -30.149719 281.000000 -130029889073108344060307473656233066496.000000
62.840820 -30.310661 282.500000 -142039894813405040533473175085483294720.000000
63.542347 -30.385767 283.200012 -134705704512290983727327365205080408064.000000
64.495499 -30.578897 285.000000 -122700972198491236688471890061164544000.000000
65.638176 -30.857862 287.600006 -106030900310069136070370492123690565632.000000
66.169456 -30.847134 287.500000 -106033516740908007135855181319106461696.000000
67.257339 -31.093910 289.799988 -124051080934963111956077150816643842048.000000
69.219940 -31.737675 295.799988 -148081436444454367254324766773300166656.000000
70.073158 -31.866430 297.000000 -158100135492274146376937751018540630016.000000
70.740715 -31.909346 297.399994 -165436911800612668771062614173482483712.000000
71.241959 -31.877157 297.100006 -164089480342208475523953314455172939776.000000
71.959595 -31.941534 297.700012 -138711713656722630630266822727458357248.000000
71.583138 -31.523088 293.799988 -94000155805952705764196304630000386048.000000
68.048309 -29.731272 277.100006 -67517104279718264003674413430267183104.000000
66.973618 -29.033857 270.600006 -51849120331981380553291371350268575744.000000
67.470207 -29.023130 270.500000 -48518226403014482239165816047384133632.000000
67.966408 -29.012400 270.399994 -48851851758584948565969324383787810816.000000
68.538208 -29.033857 270.600006 -47522618692197631780147911336694644736.000000
69.008698 -29.012400 270.399994 -47857537051380330900940946310367805440.000000
70.712669 -29.505953 275.000000 -60533419369567312627042441986150760448.000000
73.885139 -30.600355 285.200012 -69538292032143761177679210902234071040.000000
75.504875 -31.040264 289.299988 -72871792250744728731454243426908766208.000000
75.746941 -30.911510 288.100006 -72871807462551931470207061387347230720.000000
75.348747 -30.525249 284.500000 -73210665679800139927979948114582700032.000000
74.002983 -29.763460 277.399994 -72546077034919686556116074518506635264.000000
71.877472 -28.701246 267.500000 -75548548046379455196901863954942263296.000000
68.793678 -27.274231 254.199997 -71878821253176352989591451858886459392.000000
67.402969 -26.533899 247.300003 -73879163759131697159318037543344144384.000000
65.656281 -25.664816 239.199997 -69542206537197265950071032721732272128.000000
64.707603 -25.117613 234.100006 -70874025610809048323871499043364405248.000000
64.963951 -25.042507 233.399994 -69204656535368493025040490592204750848.000000
65.581940 -25.106884 234.000000 -70537788895002111844500907498357653504.000000
66.174026 -25.160532 234.500000 -67533994456315704932219955503775612928.000000
66.739624 -25.203449 234.899994 -68530930664961594575650628759424335872.000000
67.449799 -25.300014 235.800003 -67861114229005799985734982759329300480.000000
68.969757 -25.697004 239.500000 -66857692719889142720686252370081873920.000000
69.112465 -25.578978 238.399994 -62185857703591219693987060469299412992.000000
70.651695 -25.975969 242.100006 -62187150707203452487976587106568896512.000000
71.147675 -25.986698 242.199997 -60856563789975091953154375580452388864.000000
71.555328 -25.965239 242.000000 -59524673727929696798507425443440754688.000000
72.557442 -26.158369 243.800003 -60191883874251422148773594221745537024.000000
73.656342 -26.383686 245.899994 -61190128298316747324946612075102208000.000000
74.522179 -26.523169 247.199997 -61856055582231041707058466189763149824.000000
75.119965 -26.566088 247.600006 -62188362581177270675284417954833235968.000000
75.688759 -26.598276 247.899994 -62519361364704064110768025122195374080.000000
76.258713 -26.630465 248.199997 -62519336011692059546179995188131266560.000000
76.798912 -26.651924 248.399994 -62854229017862754102385000227740319744.000000
78.957603 -27.231314 253.800003 -61521071305217130718336553387523309568.000000
80.792778 -27.692678 258.100006 -59522006591066816603846676379896643584.000000
82.424057 -28.078939 261.700012 -60191833168227413019597534353617321984.000000
84.132591 -28.486656 265.500000 -59528547668163994267558399368436383744.000000
85.409439 -28.744164 267.899994 -56195067731972630365453790791012974592.000000
86.952133 -29.087505 271.100006 -52857698643739766255545390328155471872.000000
88.055420 -29.280636 272.899994 -51188359991913616434220017797872746496.000000
90.464020 -29.902943 278.700012 -55192959508877809546065010986286317568.000000
33.721992 -30.514959 289.600006 -67195131168465095561529462789727322112.000000
34.232792 -30.472813 289.200012 -69192877525991172317441783226020397056.000000
34.754082 -30.441202 288.899994 -71189325809302615366446971038231166976.000000
35.249767 -30.388517 288.399994 -72521160094721600479000255320301764608.000000
35.718700 -30.314758 287.700012 -73851691235323550971728800991477235712.000000
36.197540 -30.251537 287.100006 -74849905235774470670396182923956977664.000000
36.661263 -30.177778 286.399994 -75183510308935333345529267313109368832.000000
37.096306 -30.082945 285.500000 -75849427451644825901805909454144667648.000000
37.541061 -29.998650 284.700012 -75850725525859459608713042078226972672.000000
38.009491 -29.935427 284.100006 -75186111527967001672261138548086800384.000000
38.502754 -29.893280 283.700012 -74524098749106212062541106252924059648.000000
38.609074 -29.556099 280.500000 -72859957464740997981761870205783375872.000000
39.093857 -29.513950 280.100006 -72527650465794769013535918440713289728.000000
39.421448 -29.355896 278.600006 -71526820034504978249383847312817651712.000000
39.872337 -29.292675 278.000000 -73519374095172520177667637252781506560.000000
40.306385 -29.218918 277.299988 -75842937080571657367270246333733142528.000000
40.649364 -29.081938 276.000000 -76842459296442012598679972863920832512.000000
41.061932 -28.997641 275.200012 -76845060515473680925411844098898264064.000000
41.577217 -28.987104 275.100006 -76184340740225124109681338441005006848.000000
42.076809 -28.966030 274.899994 -74855102603235406410942319407099019264.000000
42.529133 -28.913345 274.399994 -73524561321428654092378561762297905152.000000
43.042294 -28.902809 274.299988 -72526327038568130742040755882566877184.000000
43.539185 -28.881735 274.100006 -72862528260158260830988105519883878400.000000
43.987076 -28.829050 273.600006 -73862045405426215149480226063258746880.000000
44.498116 -28.818514 273.500000 -73860747331211581442573093439176441856.000000
45.025234 -28.818514 273.500000 -74193044188953008584963833230620884992.000000
45.535702 -28.807976 273.399994 -74525341046694435727354573022065328128.000000
46.045780 -28.797440 273.299988 -75188651899769859043981737941310373888.000000
46.555470 -28.786901 273.200012 -75853265897662316980433641471450546176.000000
47.064781 -28.776365 273.100006 -76185577967210946861577199223333453824.000000
47.591129 -28.776365 273.100006 -75851993176459687838114538781432348672.000000
48.082237 -28.755291 272.899994 -75518398244503626988816666365905600512.000000
48.536953 -28.713144 272.500000 -75184788100740363400765975989940387840.000000
49.044140 -28.702606 272.399994 -75184788100740363400765975989940387840.000000
49.550941 -28.692070 272.299988 -75184777959535561574930764016314744832.000000
50.057358 -28.681532 272.200012 -75184777959535561574930764016314744832.000000
50.470478 -28.618311 271.600006 -75518388103298825162981454392279957504.000000
50.975163 -28.607775 271.500000 -75518388103298825162981454392279957504.000000
51.403584 -28.555090 271.000000 -75851993176459687838114538781432348672.000000
51.925884 -28.555090 271.000000 -75851993176459687838114538781432348672.000000
52.448189 -28.555090 271.000000 -75853281109469519719186459431889010688.000000
52.970490 -28.555090 271.000000 -75853281109469519719186459431889010688.000000
53.512527 -28.565628 271.100006 -75853281109469519719186459431889010688.000000
54.035023 -28.565628 271.100006 -75853281109469519719186459431889010688.000000
54.557514 -28.565628 271.100006 -75853281109469519719186459431889010688.000000
55.080009 -28.565628 271.100006 -75853270968264717893351247458263367680.000000
55.623013 -28.576164 271.200012 -76189482331059649808133809069206011904.000000
56.207809 -28.607775 271.500000 -76188174115640214275391464471498063872.000000
56.898232 -28.692070 272.299988 -74186533535470236398757746162958073856.000000
57.465218 -28.713144 272.500000 -73185713245385247460440887008688078848.000000
58.075535 -28.755291 272.899994 -76856748254007785200493643702451830784.000000
58.966549 -28.934420 274.600006 -87994929829298717359238790495611125760.000000
59.972446 -29.166233 276.799988 -108681405597074336361371918921747136512.000000
61.183559 -29.492876 279.899994 -120694027768209903900022309546413260800.000000
61.965584 -29.608784 281.000000 -128705924362615575795878680907661443072.000000
62.840820 -29.766838 282.500000 -142052966826394594035061409088937132032.000000
63.564781 -29.851133 283.299988 -131382695370057505000079119396133404672.000000
64.563393 -30.061871 285.299988 -115374631189893793078780147767009345536.000000
65.478424 -30.230463 286.899994 -98704549160266890634843537855909724160.000000
65.985336 -30.209389 286.700012 -96035688292570385582108438795439308800.000000
66.607513 -30.240999 287.000000 -104044948173727582760809697014020308992.000000
67.886086 -30.567644 290.100006 -123404751529328346000512435733538013184.000000
69.105820 -30.862679 292.899994 -134085478567816117471598270234379681792.000000
70.074692 -31.041807 294.600006 -145415202148801535092909568881871290368.000000
70.858299 -31.136641 295.500000 -156742299157743279822900966360321359872.000000
71.234436 -31.052343 294.700012 -150051852255039523384340818288485335040.000000
70.876564 -30.651939 290.899994 -110672823842804073796111967815638974464.000000
67.016907 -28.755291 272.899994 -71515193143199684929313319551017943040.000000
66.775620 -28.428648 269.799988 -53845538191678418124790923241602416640.000000
67.395378 -28.470795 270.200012 -50514644262711519810665367938717974528.000000
67.916138 -28.470795 270.200012 -50517255622947989963232451147321049088.000000
68.386246 -28.449720 270.000000 -48189803485507352565826050180935319552.000000
68.830048 -28.418110 269.700012 -47860102776195192837249575637655486464.000000
68.192726 -27.943947 265.200012 -54531017718450632717191462506503077888.000000
68.937012 -28.038780 266.100006 -62202758021393462448367814516433485824.000000
69.971848 -28.249519 268.100006 -65205254385865235653741633886933221376.000000
67.885658 -27.206364 258.200012 -63537223949458521365158605954358444032.000000
66.847191 -26.595221 252.399994 -62540338446836640850903992566837936128.000000
65.733002 -25.963005 246.399994 -60874914300063995801970441856053411840.000000
65.751099 -25.783876 244.699997 -62544247881287744710378208399523315712.000000
64.301247 -25.035753 237.600006 -57536181219785286117226030940546924544.000000
64.377602 -24.888237 236.199997 -59539119874169897700766881873169219584.000000
64.421112 -24.730183 234.699997 -55200864578020832784612744427475042304.000000
64.569397 -24.614277 233.600006 -56197770363052316950537781762246836224.000000
64.991783 -24.603741 233.500000 -53527570856321970887554702183191543808.000000
65.497856 -24.624815 233.699997 -57863194509824961999471332473031360512.000000
66.089371 -24.677500 234.199997 -56192537501374574819568403371415044096.000000
66.654396 -24.719646 234.600006 -58190299070707854314233541768146583552.000000
67.106537 -24.719646 234.600006 -57188170565203429843174338016168640512.000000
67.731468 -24.782867 235.199997 -58852321990773445749788786036934967296.000000
68.793564 -25.004143 237.300003 -55848537693291840663343046015978569728.000000
69.542747 -25.109512 238.300003 -57516588412108158603596497895804633088.000000
70.178276 -25.172735 238.899994 -56853231923611127070710879095244193792.000000
70.875259 -25.257030 239.699997 -57189402721586851682152592811684265984.000000
72.051506 -25.509916 242.100006 -58523833155435104208520142341919473664.000000
73.117180 -25.720655 244.100006 -59856990868080727592568589182136483840.000000
73.949394 -25.847099 245.300003 -61188835294704514530957085437832724480.000000
74.968269 -26.036762 247.100006 -61854747366811606174316121592055201792.000000
75.597168 -26.089447 247.600006 -61853434080789769728656171007534432256.000000
76.258713 -26.152668 248.199997 -61852115724165532370078614436200841216.000000
76.829826 -26.184280 248.500000 -62854223947260353189467394240927498240.000000
78.739838 -26.668978 253.100006 -60522847163561409193833959481417924608.000000
80.886688 -27.227438 258.399994 -58190177376250232404210998084638867456.000000
81.605171 -27.301193 259.100006 -58192783665884301643860475306429120512.000000
83.055183 -27.617304 262.100006 -56862277878294355715719959569317756928.000000
85.409439 -28.228445 267.899994 -53195197939544530051399872589554778112.000000
87.048355 -28.597237 271.399994 -50525049138838193117592852878627700736.000000
87.958626 -28.723680 272.600006 -49857828851311665941491472126697275392.000000
91.794853 -29.798449 282.799988 -65206461189236652928131858748384739328.000000
33.780212 -30.009190 290.100006 -70204057056781226346427673438884724736.000000
34.268307 -29.947124 289.500000 -71199669838200477718363184136387035136.000000
34.742050 -29.874712 288.799988 -72195297831426931829051512794327810048.000000
35.237545 -29.822990 288.299988 -73858141041577512202923616217386188800.000000
35.718700 -29.760923 287.700012 -75186076033750195281837896640397049856.000000
36.197540 -29.698856 287.100006 -75183469744116126042188419418606796800.000000
36.686863 -29.647137 286.600006 -75180873595686858628374154170442186752.000000
37.148277 -29.574722 285.899994 -75514493880654924042260056520033042432.000000
37.527874 -29.440247 284.600006 -75184798241945165226601187963566030848.000000
37.996113 -29.378180 284.000000 -74521497530074543735809235017946628096.000000
38.489182 -29.336802 283.600006 -73858186676999120419182070098701582336.000000
38.581547 -28.995436 280.299988 -71863046609107112902919226884198760448.000000
39.107811 -28.985090 280.200012 -71201038900848724206116800575848841216.000000
39.506348 -28.881647 279.200012 -72199268113106846643537000468767047680.000000
39.872337 -28.757513 278.000000 -74856426030462044682437481965245431808.000000
40.320919 -28.695448 277.399994 -76845060515473680925411844098898264064.000000
40.693546 -28.581657 276.299988 -76842454225839611685762366877108011008.000000
41.136539 -28.519592 275.700012 -76179133231559386543299989984237322240.000000
41.577217 -28.457525 275.100006 -75518418526913230640487090313156886528.000000
42.092113 -28.447182 275.000000 -75190000680008501880064930433520893952.000000
42.591125 -28.426493 274.799988 -74193074612567414062469469151497814016.000000
43.042294 -28.374771 274.299988 -72863831404975295450812844130779004928.000000
43.491535 -28.323048 273.799988 -73197431407533757213028322533118574592.000000
43.987076 -28.302361 273.600006 -73529738406479986181254274298188660736.000000
44.498116 -28.292015 273.500000 -73529728265275184355419062324563017728.000000
45.008774 -28.281672 273.399994 -73860732119404378703820275478737977344.000000
45.535702 -28.281672 273.399994 -74191730902931172139303882646100115456.000000
46.045780 -28.271326 273.299988 -75187343684350423511239393343602425856.000000
46.555470 -28.260981 273.200012 -75851957682242881447691296873742598144.000000
47.047546 -28.240292 273.000000 -76184274822393912241752460612438327296.000000
47.573700 -28.240292 273.000000 -75851993176459687838114538781432348672.000000
48.064617 -28.219604 272.799988 -75518398244503626988816666365905600512.000000
48.590389 -28.219604 272.799988 -75518398244503626988816666365905600512.000000
49.026134 -28.167881 272.299988 -75184788100740363400765975989940387840.000000
49.550941 -28.167881 272.299988 -75184777959535561574930764016314744832.000000
50.057358 -28.157537 272.200012 -75184777959535561574930764016314744832.000000
50.451897 -28.085125 271.500000 -75518388103298825162981454392279957504.000000
50.862507 -28.023060 270.899994 -75851998247062088751032144768245170176.000000
51.384617 -28.023060 270.899994 -75851993176459687838114538781432348672.000000
51.925884 -28.033405 271.000000 -75851993176459687838114538781432348672.000000
52.448189 -28.033405 271.000000 -75853281109469519719186459431889010688.000000
52.970490 -28.033405 271.000000 -75853281109469519719186459431889010688.000000
53.512527 -28.043749 271.100006 -75853281109469519719186459431889010688.000000
54.035023 -28.043749 271.100006 -75853281109469519719186459431889010688.000000
54.557514 -28.043749 271.100006 -75853281109469519719186459431889010688.000000
55.059692 -28.033405 271.000000 -75853270968264717893351247458263367680.000000
55.602501 -28.043749 271.100006 -77187706472715371332636402975311396864.000000
56.104294 -28.033405 271.000000 -76520481114586443243617416236568150016.000000
56.856445 -28.147192 272.100006 -73187011319599881167348019632770383872.000000
57.296513 -28.105816 271.700012 -73854241748331210169284612358326452224.000000
57.969128 -28.178226 272.399994 -80862681339403418409669011422637457408.000000
58.945072 -28.395458 274.500000 -94005155419920005900955807627442388992.000000
59.582451 -28.447182 275.000000 -98678354428263774502491009980873834496.000000
60.221760 -28.498903 275.500000 -100015462140179709049354520548278796288.000000
61.965584 -29.067846 281.000000 -128046563508810463642066579715604348928.000000
62.729599 -29.171291 282.000000 -148733039276586082644199708141740359680.000000
63.385288 -29.223015 282.500000 -140069620979687109965150091201057128448.000000
64.314461 -29.398870 284.200012 -120058255356773838638913259007601803264.000000
65.364304 -29.626446 286.399994 -100044273303021696247191737618730582016.000000
65.939301 -29.636791 286.500000 -91373025996015714023358477039050948608.000000
66.468269 -29.626446 286.399994 -89376567571499469148518077253214535680.000000
67.020248 -29.626446 286.399994 -98725450183363453681215415498359963648.000000
67.572235 -29.626446 286.399994 -103398568062068807676068922062786265088.000000
68.338295 -29.719547 287.299988 -118064372798277257526216700522678714368.000000
70.234833 -30.298834 292.899994 -139397167830482840658079332058294910976.000000
70.726830 -30.267801 292.600006 -146048510247470756676062109829651496960.000000
69.950706 -29.698856 287.100006 -110002946559619468251185049973790081024.000000
65.838150 -27.733416 268.100006 -70844038068210049329149693032338030592.000000
66.255867 -27.692038 267.700012 -55173442760236695726199567743736348672.000000
67.370438 -27.940304 270.100006 -50512007549463045093510254796050792448.000000
67.865868 -27.929960 270.000000 -49517687771656026515564270735817965568.000000
68.335579 -27.909271 269.799988 -48523383205656210676371104636023603200.000000
68.727966 -27.857550 269.299988 -47860087564387990098496757677217021952.000000
68.912712 -27.723072 268.000000 -47529103992668399401765968470293348352.000000
66.683151 -26.626562 257.399994 -53200491648451083137380522822140428288.000000
64.151741 -25.426607 245.800003 -57538736803395346227699448294208962560.000000
63.889294 -25.136963 243.000000 -55537086082020566525230518012043329536.000000
63.986847 -24.992142 241.600006 -53205734651333627094185113186597863424.000000
63.998970 -24.816286 239.899994 -54541478371203716066212613301353840640.000000
64.004539 -24.640430 238.199997 -54873780299547544121520959079611105280.000000
64.057686 -24.485264 236.699997 -54540149873374676881799844756394606592.000000
64.214066 -24.371475 235.600006 -54206514376599408729161124446365286400.000000
64.475998 -24.299065 234.899994 -56205553737737718279062971519927844864.000000
64.735237 -24.226654 234.199997 -56201629091479411680835937726804000768.000000
65.075279 -24.185276 233.800003 -54864577156189887176066093014340075520.000000
65.553917 -24.195621 233.899994 -53527525220900362671296248301876150272.000000
66.089371 -24.226654 234.199997 -54525744291953683282881236221168713728.000000
66.597572 -24.247343 234.399994 -55857578577372668395434520503239311360.000000
67.049332 -24.247343 234.399994 -56523500790684561864628768631087431680.000000
67.789070 -24.350788 235.399994 -57520426858125649682224229913110511616.000000
68.793564 -24.547331 237.300003 -58186349071437543151418478040958631936.000000
69.630295 -24.681808 238.600006 -58852271284749436620612726168806752256.000000
70.472038 -24.816286 239.899994 -59189775651156601329384814417018880000.000000
71.525764 -25.023176 241.899994 -59859592087112395919300460417113915392.000000
72.408638 -25.167997 243.300003 -60193202230875659507351150793079128064.000000
73.147133 -25.261097 244.199997 -60525524441629091214329920518587678720.000000
73.828804 -25.333508 244.899994 -60855235292146052768741607035493154816.000000
74.513176 -25.405918 245.600006 -60521620077780388267773310672715120640.000000
75.230782 -25.488674 246.399994 -60519003646941517202288621477299224576.000000
76.473793 -25.747286 248.899994 -60184075146554016255660374530000420864.000000
77.417259 -25.902451 250.399994 -60521569371756379138597250804586905600.000000
79.237595 -26.347261 254.699997 -59522026873476420255517100327147929600.000000
80.855377 -26.719660 258.299988 -57857875447906404348902652306381602816.000000
81.479187 -26.761040 258.700012 -57528189950401447359078995723540234240.000000
83.055183 -27.112751 262.100006 -54529638514597584403602634093415628800.000000
86.110825 -27.940304 270.100006 -50526352283655227737417591489522827264.000000
86.759689 -27.981682 270.500000 -49860470635162541571564191256177278976.000000
87.732750 -28.126505 271.899994 -52530649859483283982876846887981285376.000000
93.450279 -29.781612 287.899994 -83222707026667520389776271674588528640.000000
33.780212 -29.450737 290.100006 -71868178058736836775536485538774122496.000000
34.291977 -29.410128 289.700012 -73529713053467981616666244364124553216.000000
34.778141 -29.349216 289.100006 -74190427758114137519479144035204988928.000000
35.249767 -29.278152 288.399994 -74852435466372526216281570343554908160.000000
35.731113 -29.217241 287.799988 -76181668532759843002102983390648074240.000000
36.235363 -29.176634 287.399994 -77178599670803331732616050659483975680.000000
36.725269 -29.125875 286.899994 -77509608595534926993934869800471756800.000000
37.174263 -29.044659 286.100006 -75841583229730613618269447854709800960.000000
37.620178 -28.963444 285.299988 -75511882520418453889692973311429967872.000000
38.009491 -28.841621 284.100006 -75183490026525729693858843365858082816.000000
38.407753 -28.729950 283.000000 -74855102603235406410942319407099019264.000000
38.774246 -28.597973 281.700012 -73860787896030788745913941333679013888.000000
39.093857 -28.435543 280.100006 -72531564970848273785927740260211490816.000000
39.506348 -28.344177 279.200012 -72531564970848273785927740260211490816.000000
39.901028 -28.242657 278.200012 -74522805745493979268551579615654576128.000000
40.306385 -28.151289 277.299988 -76845050374268879099576632125272621056.000000
40.664089 -28.029467 276.100006 -75841608582742618182857477788773908480.000000
41.166382 -28.009163 275.899994 -74844677444699129452344410519938007040.000000
41.562103 -27.917795 275.000000 -75850710314052256869960224117788508160.000000
42.076809 -27.907644 274.899994 -75188692464589066347322585835812945920.000000
