# .PCD v.7 - Point Cloud Data file format
VERSION .7
FIELDS x y z rgb
SIZE 4 4 4 4
TYPE F F F F
COUNT 1 1 1 1
WIDTH 1001
HEIGHT 1
POINTS 1001
DATA ascii
-49.019726 -16.258760 258.000000 6182509.000000
-49.500454 -16.586454 263.200012 9274003.000000
-51.152458 -17.317471 274.799988 11247269.000000
-51.322861 -17.556938 278.600006 11640989.000000
-67.246666 -23.247505 368.899994 12561311.000000
-68.213058 -23.833576 378.200012 13350048.000000
-81.259331 -28.698601 455.399994 13415065.000000
-85.518021 -30.532438 484.500000 13282963.000000
-86.225288 -31.124811 493.899994 12427397.000000
-61.032890 -22.277021 353.500000 11374967.000000
-60.112568 -22.188795 352.100006 10256490.000000
-69.122993 -25.806055 409.500000 8875097.000000
-70.019165 -26.442539 419.600006 7427912.000000
-72.938194 -27.866756 442.200012 6441532.000000
-49.198410 -19.018967 301.799988 4665374.000000
-40.079018 -15.678990 248.800003 3349511.000000
-38.103378 -15.086617 239.399994 2955266.000000
-37.138828 -14.884956 236.199997 2362880.000000
-36.574886 -14.840844 235.500000 1836800.000000
-36.121002 -14.840844 235.500000 1836544.000000
-35.712555 -14.859750 235.800003 1968387.000000
-34.988949 -14.746316 234.000000 1968903.000000
-34.301804 -14.645487 232.399994 1903370.000000
-33.679089 -14.569865 231.199997 1838092.000000
-33.233498 -14.569865 231.199997 1838351.000000
-32.731178 -14.544657 230.800003 1838352.000000
-32.216408 -14.513148 230.300003 1773072.000000
-31.662180 -14.462734 229.500000 1707536.000000
-31.151844 -14.431225 229.000000 1641999.000000
-30.576385 -14.368206 228.000000 1510670.000000
-30.203047 -14.399715 228.500000 1378828.000000
-29.723581 -14.380810 228.199997 1378571.000000
-29.219608 -14.349300 227.699997 1313291.000000
-28.768118 -14.342999 227.600006 1379084.000000
-28.304569 -14.330395 227.399994 1379341.000000
-27.841789 -14.317791 227.199997 1445134.000000
-27.235043 -14.229565 225.800003 1445649.000000
-26.799856 -14.229565 225.800003 1445653.000000
-26.247908 -14.166547 224.800003 1051410.000000
-25.791683 -14.153943 224.600006 1314842.000000
-25.223320 -14.078321 223.399994 2696500.000000
-24.692879 -14.021605 222.500000 4473171.000000
-24.133190 -13.945983 221.300003 5657193.000000
-23.706676 -13.945983 221.300003 6183797.000000
-23.217045 -13.908171 220.699997 6052214.000000
-22.781361 -13.901869 220.600006 5394280.000000
-22.335926 -13.889265 220.399994 2563887.000000
-21.901207 -13.882964 220.300003 1510677.000000
-21.476620 -13.882964 220.300003 2694179.000000
-21.052032 -13.882964 220.300003 3220777.000000
-20.674263 -13.914474 220.800003 2956833.000000
-20.514662 -14.097226 223.699997 2693402.000000
-23.441250 -16.454115 261.100006 2166544.000000
-23.992249 -17.210337 273.100006 2298129.000000
-24.093145 -17.670372 280.399994 2297616.000000
-23.670322 -17.758598 281.799988 2429203.000000
-23.143621 -17.771202 282.000000 2363669.000000
-22.568064 -17.745995 281.600006 1903120.000000
-21.908010 -17.651466 280.100006 1573901.000000
-21.345285 -17.632563 279.799988 1377293.000000
-20.768843 -17.601053 279.299988 1245453.000000
-20.056707 -17.449806 276.899994 983049.000000
-19.551237 -17.475016 277.299988 851971.000000
-18.941357 -17.405695 276.200012 918020.000000
-18.375710 -17.374186 275.700012 1049606.000000
-17.831404 -17.361582 275.500000 1246985.000000
-17.300430 -17.361582 275.500000 1312778.000000
-16.757282 -17.348978 275.299988 1509387.000000
-16.203117 -17.323772 274.899994 1575180.000000
-15.616285 -17.260754 273.899994 1706766.000000
-15.093903 -17.267054 274.000000 1903888.000000
-14.629612 -17.342676 275.200012 2298646.000000
-14.109464 -17.355282 275.399994 2824990.000000
-13.583612 -17.361582 275.500000 3285541.000000
-13.052639 -17.361582 275.500000 3679529.000000
-12.521665 -17.361582 275.500000 4008494.000000
-11.977633 -17.342676 275.200012 4337203.000000
-11.397323 -17.267054 274.000000 4665911.000000
-10.845439 -17.229244 273.399994 5914951.000000
-10.269448 -17.147320 272.100006 6046537.000000
-9.723538 -17.109507 271.500000 6178123.000000
-9.156221 -17.027584 270.200012 6178123.000000
-8.645049 -17.046490 270.500000 6112076.000000
-8.120709 -17.040188 270.399994 6046537.000000
-7.593944 -17.027584 270.200012 6112330.000000
-7.075802 -17.033886 270.299988 6243916.000000
-6.559700 -17.046490 270.500000 6112330.000000
-6.047292 -17.071697 270.899994 6112330.000000
-5.545580 -17.134716 271.899994 6112328.000000
-5.034472 -17.178827 272.600006 6178121.000000
-4.509088 -17.178827 272.600006 6243914.000000
-3.944246 -17.008680 269.899994 6375500.000000
-3.402498 -16.901546 268.200012 6441295.000000
-2.882366 -16.882643 267.899994 6507086.000000
-2.401366 -17.134716 271.899994 6178374.000000
-1.866284 -17.033886 270.299988 6244165.000000
-1.350807 -17.103207 271.399994 6244167.000000
-0.832920 -17.210337 273.100006 6244167.000000
-0.307469 -17.260754 273.899994 6309706.000000
0.221467 -17.342676 275.200012 6309706.000000
0.749950 -17.298563 274.500000 6309707.000000
1.260825 -17.052792 270.600006 6375500.000000
1.778403 -17.014980 270.000000 6243914.000000
2.291114 -16.958263 269.100006 6243913.000000
2.807665 -16.945662 268.899994 6244167.000000
3.312313 -16.876341 267.799988 6309958.000000
3.839884 -16.926754 268.600006 6309956.000000
4.383517 -17.027584 270.200012 6310211.000000
4.936947 -17.141016 272.000000 6310209.000000
5.519401 -17.323772 274.899994 6375489.000000
6.025013 -17.254452 273.799988 6572100.000000
6.466554 -17.027584 270.200012 6637636.000000
6.995070 -17.046490 270.500000 6637636.000000
7.552531 -17.128414 271.799988 6637636.000000
8.168489 -17.323772 274.899994 6637381.000000
8.688813 -17.304865 274.600006 6637381.000000
9.224767 -17.317471 274.799988 6637383.000000
9.750842 -17.311167 274.700012 6637383.000000
10.272789 -17.298563 274.500000 6637385.000000
10.797901 -17.292263 274.399994 6637385.000000
11.310244 -17.267054 274.000000 6637131.000000
11.834005 -17.260754 273.899994 6637131.000000
12.357383 -17.254452 273.799988 6637131.000000
12.880373 -17.248148 273.700012 6637131.000000
13.398081 -17.235544 273.500000 6637132.000000
-109.910027 -30.406187 497.700012 13151659.000000
-108.775681 -30.357313 496.899994 12955054.000000
-107.969887 -30.400076 497.600006 12824240.000000
-106.989349 -30.393967 497.500000 12823984.000000
-106.030510 -30.393967 497.500000 12758192.000000
-104.691513 -30.283998 495.700012 12954542.000000
-103.108337 -30.100719 492.700012 13085612.000000
-102.220955 -30.119047 493.000000 13479340.000000
-101.270790 -30.119047 493.000000 13742256.000000
-99.933998 -30.002970 491.100006 13019049.000000
-83.769493 -25.390419 415.600006 8875123.000000
-56.317173 -17.234449 282.100006 3547696.000000
-55.239666 -17.069496 279.399994 2233640.000000
-50.981339 -15.908722 260.399994 4274513.000000
-50.014217 -15.762097 258.000000 5657197.000000
-49.574551 -15.780427 258.299988 5329004.000000
-49.190723 -15.817081 258.899994 5394538.000000
-49.613297 -16.116440 263.799988 7827589.000000
-51.673664 -16.959530 277.600006 10326689.000000
-57.844139 -19.183329 314.000000 11575464.000000
-67.501877 -22.622887 370.299988 12561324.000000
-86.141083 -29.178209 477.600006 13086634.000000
-88.735764 -30.381750 497.299988 13282980.000000
-89.824806 -31.090433 508.899994 13479584.000000
-89.647072 -31.371462 513.500000 13347994.000000
-88.467468 -31.304258 512.400024 13216406.000000
-86.984810 -31.127089 509.500000 12821903.000000
-85.901573 -31.090433 508.899994 12098692.000000
-84.854012 -31.065996 508.500000 11177848.000000
-82.818336 -30.674997 502.100006 10388589.000000
-74.889832 -28.066309 459.399994 8875347.000000
-63.275875 -23.997488 392.799988 7559228.000000
-57.170986 -21.944750 359.200012 6967349.000000
-51.211330 -19.898123 325.700012 6112301.000000
-43.532654 -17.124481 280.299988 4861983.000000
-38.099606 -15.175601 248.399994 3283469.000000
-36.484962 -14.717401 240.899994 2231043.000000
-35.871151 -14.656307 239.899994 1968387.000000
-35.098831 -14.528011 237.800003 1968648.000000
-33.999565 -14.259200 233.399994 1969163.000000
-33.664730 -14.308074 234.199997 1903886.000000
-32.816265 -14.137013 231.399994 1838351.000000
-32.244389 -14.082028 230.500000 1773072.000000
-31.731159 -14.051483 230.000000 1707536.000000
-31.179052 -14.002607 229.199997 1641999.000000
-30.710491 -13.990389 229.000000 1576463.000000
-30.255920 -13.984280 228.899994 1444621.000000
-29.788708 -13.972061 228.699997 1444364.000000
-29.335100 -13.965952 228.600006 1379084.000000
-28.818678 -13.929296 228.000000 1379084.000000
-28.341909 -13.910968 227.699997 1444877.000000
-27.866299 -13.892640 227.399994 1445135.000000
-27.259167 -13.807109 226.000000 1380114.000000
-26.811726 -13.801000 225.899994 1380373.000000
-26.364670 -13.794890 225.800003 1117203.000000
-25.826132 -13.739906 224.899994 1380636.000000
-25.336229 -13.709359 224.399994 2302254.000000
-24.759466 -13.629938 223.100006 3881291.000000
-24.165905 -13.538298 221.600006 5460327.000000
-23.728102 -13.532188 221.500000 6249590.000000
-23.301203 -13.532188 221.500000 5921397.000000
-22.863976 -13.526079 221.399994 5591402.000000
-22.406866 -13.507751 221.100006 2892854.000000
-21.901207 -13.458877 220.300003 1707803.000000
-21.476620 -13.458877 220.300003 2694181.000000
-21.052032 -13.458877 220.300003 3286316.000000
-20.655539 -13.477204 220.600006 3088419.000000
-20.432127 -13.611610 222.800003 2824988.000000
-24.006857 -16.336376 267.399994 2364177.000000
-23.921967 -16.635733 272.299988 2692884.000000
-24.127516 -17.155027 280.799988 2363661.000000
-23.703922 -17.240559 282.200012 2626579.000000
-23.160036 -17.240559 282.200012 2758168.000000
-22.616148 -17.240559 282.200012 2561049.000000
-22.056620 -17.228338 282.000000 2232346.000000
-21.482603 -17.203901 281.600006 2101277.000000
-20.806025 -17.093935 279.799988 1969693.000000
-20.136381 -16.983967 278.000000 1641240.000000
-19.544186 -16.935091 277.200012 1444112.000000
-18.920784 -16.855669 275.899994 1378571.000000
-18.369045 -16.837341 275.600006 1312778.000000
-17.831404 -16.831232 275.500000 1246985.000000
-17.294151 -16.825123 275.399994 1049606.000000
-16.739021 -16.800686 275.000000 918020.000000
-16.144176 -16.733484 273.899994 917506.000000
-15.610583 -16.727373 273.799988 851969.000000
-15.143482 -16.794577 274.899994 917506.000000
-14.618980 -16.800686 275.000000 1114372.000000
-14.088970 -16.800686 275.000000 1377544.000000
-13.554029 -16.794577 274.899994 1706509.000000
-13.019474 -16.788467 274.799988 2166290.000000
-12.485304 -16.782358 274.700012 2495255.000000
-11.907996 -16.715155 273.600006 2692634.000000
-11.368206 -16.696827 273.299988 2758427.000000
-10.829572 -16.678499 273.000000 3811116.000000
-10.250578 -16.592968 271.600006 4074289.000000
-9.702050 -16.550201 270.899994 4468535.000000
-9.129112 -16.458561 269.399994 4600377.000000
-8.568347 -16.379141 268.100006 4797242.000000
-8.045629 -16.366922 267.899994 4929598.000000
-7.532113 -16.373034 268.000000 5389636.000000
-7.023448 -16.391359 268.299988 5719112.000000
-6.513625 -16.409687 268.600006 5981771.000000
-6.038363 -16.525764 270.500000 5982284.000000
-5.525184 -16.550201 270.899994 6179404.000000
-4.991995 -16.513548 270.299988 6179661.000000
-4.447886 -16.428017 268.899994 6310990.000000
-3.912096 -16.354704 267.700012 6245454.000000
-3.393617 -16.342485 267.500000 6310990.000000
-2.878062 -16.342485 267.500000 6310989.000000
-2.372222 -16.409687 268.600006 6179142.000000
-1.853856 -16.403578 268.500000 6309958.000000
-1.336373 -16.403578 268.500000 6309960.000000
-0.820110 -16.428017 268.899994 6375753.000000
-0.303428 -16.513548 270.299988 6375499.000000
0.218489 -16.586859 271.500000 6375499.000000
0.738749 -16.519655 270.399994 6441293.000000
1.256166 -16.470781 269.600006 6441293.000000
1.771158 -16.428017 268.899994 6243914.000000
2.289412 -16.428017 268.899994 6243913.000000
2.798268 -16.373034 268.000000 6243913.000000
3.299945 -16.299719 266.799988 6309958.000000
3.819870 -16.324156 267.200012 6309956.000000
4.352693 -16.391359 268.299988 6310209.000000
4.873420 -16.403578 268.500000 6376002.000000
5.390903 -16.403578 268.500000 6441536.000000
5.921588 -16.440235 269.100006 6572354.000000
6.418688 -16.385250 268.200012 6637636.000000
6.958867 -16.440235 269.100006 6637636.000000
7.483063 -16.452454 269.299988 6637636.000000
8.097174 -16.647953 272.500000 6637381.000000
8.635022 -16.672390 272.899994 6637381.000000
9.174414 -16.696827 273.299988 6637383.000000
9.708246 -16.709045 273.500000 6637383.000000
10.239108 -16.715155 273.600006 6637385.000000
10.770355 -16.721264 273.700012 6637385.000000
11.285477 -16.702936 273.399994 6637131.000000
11.808083 -16.696827 273.299988 6637131.000000
12.325789 -16.684607 273.100006 6637131.000000
12.842726 -16.672390 272.899994 6637131.000000
13.353992 -16.654062 272.600006 6637132.000000
-108.695427 -29.122667 492.200012 13151401.000000
-108.118950 -29.223255 493.899994 13020333.000000
-107.796295 -29.394842 496.799988 12889262.000000
-106.989349 -29.436260 497.500000 12889006.000000
-106.030510 -29.436260 497.500000 12889006.000000
-104.776001 -29.353424 496.100006 13019564.000000
-103.422241 -29.241005 494.200012 13150890.000000
-102.552704 -29.264671 494.600006 13544619.000000
-101.537834 -29.246922 494.299988 13413033.000000
-100.463066 -29.211420 493.700012 13544879.000000
-92.859985 -27.258863 460.700012 10387849.000000
-58.034035 -17.200243 290.700012 4665663.000000
-55.279205 -16.543474 279.600006 2430505.000000
-51.862354 -15.673698 264.899994 4010828.000000
-50.130527 -15.300939 258.600006 5328745.000000
-49.670513 -15.312772 258.799988 5198189.000000
-49.209728 -15.324606 259.000000 4737637.000000
-48.973854 -15.407442 260.399994 6381175.000000
-53.665409 -17.058239 288.299988 9142938.000000
-59.188923 -19.010796 321.299988 11378098.000000
-79.806427 -25.903910 437.799988 12495289.000000
-84.517822 -27.726295 468.600006 12888759.000000
-90.520119 -30.016109 507.299988 13150898.000000
-90.760292 -30.424372 514.200012 13413291.000000
-90.153351 -30.554543 516.400024 13347491.000000
-88.760986 -30.418455 514.099976 13150362.000000
-87.548210 -30.341536 512.799988 12887697.000000
-86.475487 -30.311951 512.299988 12624776.000000
-85.488129 -30.311951 512.299988 12230529.000000
-84.352318 -30.258701 511.399994 11967611.000000
-82.796127 -30.051611 507.899994 11835511.000000
-81.543404 -29.951025 506.200012 11571826.000000
-79.676483 -29.619682 500.600006 11177327.000000
-76.038689 -28.613819 483.600006 10650985.000000
-63.644955 -24.247194 409.799988 8677458.000000
-44.986370 -17.354082 293.299988 5453863.000000
-38.196381 -14.922261 252.199997 2822664.000000
-37.306595 -14.762506 249.500000 2033409.000000
-36.486256 -14.626419 247.199997 2034182.000000
-36.577942 -14.857175 251.100006 2034955.000000
-35.303402 -14.531750 245.600006 1969422.000000
-35.751862 -14.916344 252.100006 1904144.000000
-35.377899 -14.963678 252.899994 1773330.000000
-31.772549 -13.626473 230.300003 1707538.000000
-31.287880 -13.608724 230.000000 1642002.000000
-30.764133 -13.573222 229.399994 1576209.000000
-30.282354 -13.555472 229.100006 1510159.000000
-29.853834 -13.561388 229.199997 1510159.000000
-29.373596 -13.543638 228.899994 1444366.000000
-28.957716 -13.555472 229.100006 1378830.000000
-28.541063 -13.567306 229.300003 1378830.000000
-27.988842 -13.514053 228.399994 1379343.000000
-27.403904 -13.443051 227.199997 1314321.000000
-26.882938 -13.401634 226.500000 1248788.000000
-26.411373 -13.383883 226.199997 1117203.000000
-25.917999 -13.354300 225.699997 1315099.000000
-25.381390 -13.301048 224.800003 1775911.000000
-24.881544 -13.265547 224.199997 3157312.000000
-24.187716 -13.123543 221.800003 5131361.000000
-23.749525 -13.117626 221.699997 6118005.000000
-23.322243 -13.117626 221.699997 5921141.000000
-22.894957 -13.117626 221.699997 5854575.000000
-22.427135 -13.093959 221.300003 3813958.000000
-21.901207 -13.034790 220.300003 2431528.000000
-21.476620 -13.034790 220.300003 3023148.000000
-21.052032 -13.034790 220.300003 3352110.000000
-20.683626 -13.070292 220.899994 3088162.000000
-20.743927 -13.383883 226.199997 2693655.000000
-23.225780 -15.306855 258.700012 2232587.000000
-23.930752 -16.117460 272.399994 2561551.000000
-24.325142 -16.750563 283.100006 2298379.000000
-23.729120 -16.715061 282.500000 2627090.000000
-23.168243 -16.703228 282.299988 2824472.000000
-22.624163 -16.703228 282.299988 2692636.000000
-22.064442 -16.691395 282.100006 2495519.000000
-21.467346 -16.649977 281.399994 2561573.000000
-20.835768 -16.578974 280.200012 2561576.000000
-20.150869 -16.460640 278.200012 2233381.000000
-19.551237 -16.407387 277.299988 2036249.000000
-18.927643 -16.330467 276.000000 1905172.000000
-18.369045 -16.306801 275.600006 1773842.000000
-17.831404 -16.300882 275.500000 1642256.000000
-17.294151 -16.294968 275.399994 1575950.000000
-16.745110 -16.277216 275.100006 1444364.000000
-16.144176 -16.206215 273.899994 1246985.000000
-15.604882 -16.194380 273.700012 1115399.000000
-15.088395 -16.206215 273.899994 1377801.000000
-14.613664 -16.265383 274.899994 1180422.000000
-14.032614 -16.206215 273.899994 983043.000000
-13.489932 -16.188463 273.600006 1048836.000000
-12.957883 -16.182549 273.500000 1443337.000000
-12.426218 -16.176630 273.399994 1574923.000000
-11.890587 -16.164795 273.200012 1508874.000000
-11.343247 -16.135214 272.700012 1377289.000000
-10.758167 -16.046461 271.200012 1377805.000000
-10.209062 -16.005041 270.500000 1575698.000000
-9.634004 -15.916288 269.000000 2101274.000000
-9.068115 -15.833454 267.600006 2233628.000000
-8.539584 -15.809786 267.200012 2627872.000000
-8.015596 -15.792035 266.899994 2957349.000000
-7.473093 -15.732867 265.899994 3746351.000000
-6.960621 -15.732867 265.899994 4207415.000000
-6.452999 -15.744700 266.100006 4733244.000000
-5.942374 -15.750618 266.200012 4799807.000000
-5.435443 -15.768369 266.500000 5194049.000000
-4.923662 -15.774285 266.600006 5391942.000000
-4.408187 -15.768369 266.500000 5720392.000000
-3.903327 -15.803869 267.100006 5655369.000000
-3.377125 -15.750618 266.200012 5786185.000000
-2.874834 -15.809786 267.200012 5851719.000000
-2.360740 -15.815703 267.299988 6179142.000000
-1.846261 -15.821620 267.399994 6309958.000000
-1.330400 -15.815703 267.299988 6309960.000000
-0.817670 -15.863038 268.100006 6375753.000000
-0.301295 -15.880788 268.399994 6375499.000000
0.216719 -15.934039 269.299988 6375500.000000
0.736290 -15.945873 269.500000 6441295.000000
1.255234 -15.939957 269.399994 6441295.000000
1.761937 -15.827538 267.500000 6243914.000000
2.266424 -15.750618 266.200012 6309706.000000
2.770077 -15.697366 265.299988 6309706.000000
3.271497 -15.650032 264.500000 6309958.000000
3.772693 -15.614532 263.899994 6375749.000000
4.317002 -15.744700 266.100006 6376002.000000
4.857085 -15.833454 267.600006 6441795.000000
5.362793 -15.803869 267.100006 6507329.000000
5.897383 -15.857121 268.000000 6572354.000000
6.389969 -15.797954 267.000000 6637634.000000
6.912319 -15.815703 267.299988 6637636.000000
7.435825 -15.833454 267.600006 6637636.000000
8.034774 -15.999125 270.399994 6637381.000000
8.587560 -16.058294 271.399994 6637381.000000
9.124060 -16.081961 271.799988 6637383.000000
9.665650 -16.111546 272.299988 6637383.000000
10.212912 -16.147045 272.899994 6637385.000000
10.746744 -16.158880 273.100006 6637385.000000
11.260710 -16.141129 272.799988 6637131.000000
11.782159 -16.135214 272.700012 6637131.000000
12.289683 -16.111546 272.299988 6637131.000000
12.805078 -16.099710 272.100006 6637131.000000
13.309904 -16.076044 271.700012 6637132.000000
-108.585014 -28.146540 491.700012 13085869.000000
-108.097061 -28.266752 493.799988 12954542.000000
-107.557617 -28.375515 495.700012 12889007.000000
-106.645264 -28.386963 495.899994 12889007.000000
-105.817390 -28.421310 496.500000 12823213.000000
-104.754875 -28.392689 496.000000 13019563.000000
-103.505951 -28.312548 494.600006 13150889.000000
-103.029594 -28.444208 496.899994 13479339.000000
-101.969208 -28.415586 496.399994 13084069.000000
-100.808998 -28.358341 495.399994 13873843.000000
-97.314514 -27.637075 482.799988 11637657.000000
-61.827110 -17.728258 309.700012 5783627.000000
-55.219894 -15.988060 279.299988 2890024.000000
-52.488853 -15.346934 268.100006 4009795.000000
-50.033604 -14.774501 258.100006 5261921.000000
-49.555359 -14.780226 258.200012 5132649.000000
-49.209728 -14.826020 259.000000 4738405.000000
-48.823395 -14.860367 259.600006 5789810.000000
-53.590950 -16.480352 287.899994 8419475.000000
-59.299454 -18.426626 321.899994 10852017.000000
-74.611176 -23.429691 409.299988 12034747.000000
-85.455696 -27.121885 473.799988 12757438.000000
-90.305992 -28.970844 506.100006 13282748.000000
-90.795593 -29.445965 514.400024 13282226.000000
-90.467590 -29.663488 518.200012 13084583.000000
-89.313469 -29.611971 517.299988 12624281.000000
-87.599426 -29.371548 513.099976 12295822.000000
-86.559883 -29.354376 512.799988 12230023.000000
-85.554878 -29.348652 512.700012 12230532.000000
-84.550247 -29.342926 512.599976 12230787.000000
-83.464500 -29.308580 512.000000 12296066.000000
-82.010551 -29.142574 509.100006 12229505.000000
-80.695122 -29.022364 507.000000 12426629.000000
-79.497849 -28.942223 505.600006 12624009.000000
-75.060051 -27.665697 483.299988 10781809.000000
-53.483624 -19.960747 348.700012 6768440.000000
-40.498463 -15.306864 267.399994 3282188.000000
-39.609287 -15.163755 264.899994 2229761.000000
-38.552628 -14.951956 261.200012 2230534.000000
-38.267723 -15.037821 262.700012 2100235.000000
-38.322018 -15.261069 266.600006 2034703.000000
-39.935440 -16.119719 281.600006 1969426.000000
-39.308773 -16.085373 281.000000 1904147.000000
-32.545135 -13.503700 235.899994 1838354.000000
-31.383102 -13.206034 230.699997 1838354.000000
-30.965296 -13.217483 230.899994 1772560.000000
-30.427753 -13.177413 230.199997 1706766.000000
-29.971062 -13.171689 230.100006 1706766.000000
-29.540421 -13.177413 230.199997 1575693.000000
-29.122032 -13.188862 230.399994 1444366.000000
-28.665535 -13.183137 230.300003 1378830.000000
-28.197166 -13.171689 230.100006 1313550.000000
-27.524521 -13.062925 228.199997 1379344.000000
-26.966021 -13.005683 227.199997 1248275.000000
-26.411373 -12.948440 226.199997 1182482.000000
-25.929483 -12.925542 225.800003 1314583.000000
-25.403973 -12.879747 225.000000 1577503.000000
-24.914837 -12.851126 224.500000 2696245.000000
-24.231337 -12.719466 222.199997 4802138.000000
-23.770952 -12.702292 221.899994 6052211.000000
-23.343281 -12.702292 221.899994 5986934.000000
-22.905285 -12.696568 221.800003 6052212.000000
-22.447403 -12.679396 221.500000 4405842.000000
-21.921089 -12.622152 220.500000 2891313.000000
-21.486368 -12.616428 220.399994 3154481.000000
-21.061590 -12.616428 220.399994 3417135.000000
-20.795986 -12.713741 222.100006 2759200.000000
-21.193287 -13.228931 231.100006 2298130.000000
-23.288626 -14.848918 259.399994 1640452.000000
-24.861979 -16.199860 283.000000 2035207.000000
-24.393881 -16.251379 283.899994 2166280.000000
-23.838318 -16.245655 283.799988 2429711.000000
-23.266727 -16.228481 283.500000 2561301.000000
-22.640190 -16.171238 282.500000 2363925.000000
-22.080084 -16.159790 282.299988 2166553.000000
-21.490231 -16.125443 281.700012 2232609.000000
-20.806025 -16.016682 279.799988 2298404.000000
-20.136381 -15.913644 278.000000 2036000.000000
-19.558287 -15.879297 277.399994 2167835.000000
-18.927643 -15.799156 276.000000 2037012.000000
-18.369045 -15.776259 275.600006 2037012.000000
-17.837877 -15.776259 275.600006 2102294.000000
-17.294151 -15.764812 275.399994 2102294.000000
-16.690325 -15.696118 274.200012 2167317.000000
-16.138281 -15.673222 273.799988 2035731.000000
-15.599180 -15.661773 273.600006 1904145.000000
-15.071869 -15.661773 273.600006 2232853.000000
-14.544557 -15.661773 273.600006 1838095.000000
-14.022367 -15.667497 273.700012 1377544.000000
-13.485002 -15.656048 273.500000 1442567.000000
-12.953144 -15.650324 273.399994 1639946.000000
-12.426218 -15.650324 273.399994 1705737.000000
-11.886234 -15.633151 273.100006 1508101.000000
-11.285013 -15.530113 271.299988 1114114.000000
-10.750234 -15.512940 271.000000 983047.000000
-10.171321 -15.427075 269.500000 1049354.000000
-9.623260 -15.381281 268.700012 1312012.000000
-9.061338 -15.306864 267.399994 1115147.000000
-8.533191 -15.283966 267.000000 1246219.000000
-8.009590 -15.266793 266.700012 1378573.000000
-7.461851 -15.198102 265.500000 1970710.000000
-6.944915 -15.186653 265.299988 2497054.000000
-6.433599 -15.186653 265.299988 2891554.000000
-5.922284 -15.186653 265.299988 3089189.000000
-5.413008 -15.192378 265.399994 3681324.000000
-4.905193 -15.203826 265.600006 4207668.000000
-4.393300 -15.203826 265.600006 4668219.000000
-3.881407 -15.203826 265.600006 4931646.000000
-3.370782 -15.209551 265.700012 4997439.000000
-2.859771 -15.215275 265.799988 5128255.000000
-2.358091 -15.283966 267.000000 6047815.000000
-1.837285 -15.232449 266.100006 6113351.000000
-1.323930 -15.226724 266.000000 6178890.000000
-0.811571 -15.232449 266.100006 6178891.000000
-0.298938 -15.243896 266.299988 6178891.000000
0.215190 -15.306864 267.399994 6244430.000000
0.733012 -15.358383 268.299988 6244430.000000
1.246381 -15.312589 267.500000 6244430.000000
1.757985 -15.278242 266.899994 6178637.000000
2.260464 -15.198102 265.500000 6178891.000000
2.757547 -15.117961 264.100006 6178890.000000
3.256655 -15.072167 263.299988 6244937.000000
3.765545 -15.077891 263.399994 6244935.000000
4.281310 -15.106512 263.899994 6310726.000000
4.837119 -15.255345 266.500000 6310981.000000
5.322638 -15.175204 265.100006 6507588.000000
5.796159 -15.077891 263.399994 6441282.000000
6.327745 -15.135134 264.399994 6572354.000000
6.883873 -15.238173 266.200012 6572100.000000
7.410817 -15.266793 266.700012 6572100.000000
7.939688 -15.295415 267.200012 6572101.000000
8.432515 -15.255345 266.500000 6572103.000000
9.060279 -15.449972 269.899994 6572103.000000
9.626605 -15.524389 271.200012 6571849.000000
10.175488 -15.564460 271.899994 6571849.000000
10.723134 -15.598805 272.500000 6571849.000000
11.248325 -15.598805 272.500000 6571849.000000
11.751915 -15.570184 272.000000 6571849.000000
12.231010 -15.512940 271.000000 6637385.000000
12.748605 -15.507215 270.899994 6571849.000000
13.256017 -15.490043 270.600006 6637385.000000
-108.518761 -27.183403 491.399994 12889014.000000
-107.659241 -27.205530 491.799988 12823478.000000
-106.819885 -27.233191 492.299988 12757940.000000
-105.892578 -27.238722 492.399994 12823474.000000
-104.964874 -27.244253 492.500000 12889006.000000
-104.184639 -27.288507 493.299988 12954284.000000
-103.464096 -27.349358 494.399994 13019817.000000
-102.988129 -27.476591 496.700012 13085095.000000
-102.051369 -27.482122 496.799988 13479596.000000
-100.992142 -27.454462 496.299988 13808562.000000
-99.148743 -27.211063 491.899994 12426912.000000
-71.988556 -19.947773 360.600006 7690077.000000
-55.437374 -15.511247 280.399994 3414049.000000
-54.896954 -15.511247 280.399994 3414823.000000
-50.421310 -14.388285 260.100006 4865356.000000
-49.555359 -14.283180 258.200012 5329252.000000
-49.171726 -14.316372 258.799988 5132904.000000
-48.748165 -14.338498 259.200012 5065829.000000
-48.676739 -14.465731 261.500000 6577784.000000
-56.001968 -16.816759 304.000000 9734307.000000
-66.298759 -20.119259 363.700012 12101823.000000
-87.006821 -26.685537 482.399994 12758720.000000
-87.361816 -27.083830 489.600006 12757944.000000
-90.954453 -28.505510 515.299988 12823215.000000
-90.624718 -28.715719 519.099976 12691622.000000
-89.503395 -28.676996 518.400024 12493725.000000
-87.616501 -28.389341 513.200012 12230294.000000
-86.559883 -28.367216 512.799988 11967378.000000
-85.571564 -28.367216 512.799988 11967122.000000
-84.533760 -28.350618 512.500000 12032915.000000
-83.464500 -28.322960 512.000000 12032914.000000
-81.865578 -28.112751 508.200012 12163985.000000
-80.583710 -28.007647 506.299988 12360849.000000
-79.529297 -27.979986 505.799988 12426128.000000
-77.296478 -27.531910 497.700012 11438718.000000
-62.870480 -22.674963 409.899994 8280398.000000
-43.633533 -15.937198 288.100006 4464663.000000
-42.091408 -15.572097 281.500000 2295042.000000
-42.065464 -15.765710 285.000000 2098436.000000
-40.613022 -15.422737 278.799988 2099210.000000
-41.455624 -15.953794 288.399994 2034448.000000
-41.254330 -16.092089 290.899994 1969171.000000
-40.190075 -15.892942 287.299988 1837843.000000
-39.181087 -15.710392 284.000000 1837329.000000
-32.661823 -13.281919 240.100006 1903120.000000
-31.327385 -12.922351 233.600006 1903374.000000
-30.811075 -12.894691 233.100006 1969163.000000
-30.479046 -12.944477 234.000000 1772297.000000
-30.772341 -13.265324 239.800003 1575434.000000
-30.373369 -13.292983 240.300003 1444107.000000
-30.233860 -13.436810 242.899994 1313037.000000
-28.748610 -12.977669 234.600006 1379087.000000
-27.608952 -12.662354 228.899994 1445137.000000
-26.847332 -12.512995 226.199997 1642259.000000
-26.399698 -12.507463 226.100006 1642002.000000
-25.952450 -12.501931 226.000000 1707538.000000
-25.437843 -12.463209 225.300003 1641750.000000
-24.959229 -12.441081 224.899994 2563370.000000
-24.394915 -12.374700 223.699997 4800596.000000
-23.856651 -12.319381 222.699997 6052211.000000
-23.406401 -12.308317 222.500000 5921401.000000
-22.915611 -12.275126 221.899994 5789558.000000
-22.477808 -12.269595 221.800003 5326946.000000
-22.020504 -12.252999 221.500000 4075589.000000
-21.574108 -12.241936 221.300003 2890542.000000
-21.224043 -12.286190 222.100006 2363938.000000
-20.973890 -12.391295 224.000000 1903383.000000
-21.110752 -12.734268 230.199997 1442569.000000
-21.241671 -13.088305 236.600006 1376515.000000
-24.905905 -15.682733 283.500000 1837064.000000
-24.591505 -15.832092 286.200012 1836806.000000
-23.955914 -15.776774 285.200012 1837063.000000
-23.373417 -15.754646 284.799988 1903115.000000
-22.792461 -15.732519 284.399994 1903118.000000
-22.213049 -15.710392 284.000000 1837841.000000
-21.551260 -15.627415 282.500000 1838102.000000
-20.924999 -15.566564 281.399994 1903896.000000
-20.252277 -15.466991 279.600006 1838872.000000
-19.600590 -15.378483 278.000000 1839123.000000
-19.009935 -15.334228 277.200012 1905168.000000
-18.389038 -15.262314 275.899994 1970961.000000
-17.837877 -15.245719 275.600006 2233364.000000
-17.300430 -15.240187 275.500000 2364696.000000
-16.763369 -15.234654 275.399994 2561818.000000
-16.220800 -15.223591 275.200012 2627357.000000
-15.621985 -15.157209 274.000000 2758686.000000
-15.082886 -15.146146 273.799988 2955295.000000
-14.555189 -15.146146 273.799988 2889502.000000
-14.022367 -15.140614 273.700012 2691865.000000
-13.485002 -15.129550 273.500000 2625301.000000
-12.953144 -15.124018 273.399994 2427920.000000
-12.426218 -15.124018 273.399994 2296333.000000
-11.886234 -15.107423 273.100006 2230283.000000
-11.305812 -15.035508 271.799988 2098954.000000
-10.738333 -14.974659 270.700012 1573640.000000
-10.159998 -14.891682 269.200012 1574155.000000
-9.591026 -14.814236 267.799988 1639435.000000
-9.061338 -14.792109 267.399994 1508362.000000
-8.529995 -14.764449 266.899994 1376263.000000
-7.979558 -14.698067 265.700012 1179651.000000
-7.459040 -14.681472 265.399994 1179651.000000
-6.942297 -14.670408 265.200012 1245188.000000
-6.428749 -14.664876 265.100006 1311238.000000
-5.917819 -14.664876 265.100006 1377031.000000
-5.406889 -14.664876 265.100006 1443337.000000
-4.895959 -14.664876 265.100006 1574923.000000
-4.385030 -14.664876 265.100006 1838095.000000
-3.874100 -14.664876 265.100006 2232851.000000
-3.363170 -14.664876 265.100006 2759708.000000
-2.852240 -14.664876 265.100006 3154211.000000
-2.342194 -14.670408 265.200012 4205875.000000
-1.829690 -14.659345 265.000000 4600120.000000
-1.315469 -14.620622 264.299988 5126464.000000
-0.809131 -14.675941 265.299988 5587015.000000
-0.298152 -14.692535 265.600006 5850187.000000
0.213983 -14.709131 265.899994 6113359.000000
0.726728 -14.714664 266.000000 6244945.000000
1.238460 -14.703599 265.799988 6376529.000000
1.740859 -14.620622 264.299988 6573908.000000
2.245139 -14.587431 263.700012 6508369.000000
2.748150 -14.559772 263.200012 6442576.000000
3.239339 -14.487858 261.899994 6310989.000000
3.741242 -14.476794 261.700012 6245194.000000
4.245619 -14.476794 261.700012 6179401.000000
4.748181 -14.471262 261.600006 6113608.000000
5.256381 -14.482327 261.799988 6113860.000000
5.730144 -14.404881 260.399994 6574151.000000
6.241588 -14.427008 260.799988 6376772.000000
6.790778 -14.526581 262.600006 6245188.000000
7.305226 -14.543177 262.899994 6245188.000000
7.773287 -14.471262 261.600006 6507335.000000
8.233172 -14.393817 260.200012 6507337.000000
8.808511 -14.515517 262.399994 6244167.000000
9.356832 -14.581900 263.600006 6046534.000000
10.063216 -14.875086 268.899994 6375242.000000
10.675913 -15.007850 271.299988 6375240.000000
11.198792 -15.007850 271.299988 6375240.000000
11.445155 -14.653812 264.899994 6506824.000000
11.770655 -14.427008 260.799988 6703687.000000
12.292121 -14.449136 261.200012 6572871.000000
13.104156 -14.797640 267.500000 6572100.000000
-108.518761 -26.237438 491.399994 12757948.000000
-107.593567 -26.242777 491.500000 12692408.000000
-106.667992 -26.248117 491.600006 12692406.000000
-105.763542 -26.258797 491.799988 12757939.000000
-105.220627 -26.360243 493.700012 12823216.000000
-104.628151 -26.451012 495.399994 12888749.000000
-103.631516 -26.440332 495.200012 12888490.000000
-103.071060 -26.541780 497.100006 12822437.000000
-102.092453 -26.536440 497.000000 13151401.000000
-101.114235 -26.531101 496.899994 13282474.000000
-99.471245 -26.349564 493.500000 12295069.000000
-78.057480 -20.876757 391.000000 8412770.000000
-56.208435 -15.179699 284.299988 3938591.000000
-55.171051 -15.046216 281.799988 3018262.000000
-52.980179 -14.592372 273.299988 4206138.000000
-49.555359 -13.786135 258.200012 5328736.000000
-49.190723 -13.823510 258.899994 5197926.000000
-48.748165 -13.839528 259.200012 4802656.000000
-48.416138 -13.887582 260.100006 6051440.000000
-56.923054 -16.498512 309.000000 9142683.000000
-65.132111 -19.077404 357.299988 11642042.000000
-85.275337 -25.244324 472.799988 12430524.000000
-90.609329 -27.113087 507.799988 12495796.000000
-91.113304 -27.561592 516.200012 12626861.000000
-90.659630 -27.727110 519.299988 12560806.000000
-89.606987 -27.711092 519.000000 12362911.000000
-87.770157 -27.449465 514.099976 12033690.000000
-86.559883 -27.380053 512.799988 11836057.000000
-85.571564 -27.380053 512.799988 11770010.000000
-84.566742 -27.374714 512.700012 11835804.000000
-83.448196 -27.332001 511.899994 11967133.000000
-82.123314 -27.219873 509.799988 12098460.000000
-80.440468 -26.984943 505.399994 12360858.000000
-79.372063 -26.952908 504.799988 12623256.000000
-78.088539 -26.846121 502.799988 11898759.000000
-67.364517 -23.450310 439.200012 8871767.000000
-45.663002 -16.098063 301.500000 4990237.000000
-44.229622 -15.793719 295.799988 2688515.000000
-44.766510 -16.194170 303.299988 2097666.000000
-44.007153 -16.130098 302.100006 1901831.000000
-43.410538 -16.124760 302.000000 1836814.000000
-42.984489 -16.183491 303.100006 1706002.000000
-42.246441 -16.124760 302.000000 1705745.000000
-41.871334 -16.204849 303.500000 1705487.000000
-41.340809 -16.226206 303.899994 1705229.000000
-40.620995 -16.172813 302.899994 1836554.000000
-39.164829 -15.820416 296.299988 1837064.000000
-38.098808 -15.617523 292.500000 1771525.000000
-37.368248 -15.548112 291.200012 1509383.000000
-36.655334 -15.484040 290.000000 1247241.000000
-32.797951 -14.069119 263.500000 1116171.000000
-34.606167 -15.078251 282.399994 1247757.000000
-28.887480 -12.787681 239.500000 1444623.000000
-27.322086 -12.291123 230.199997 1575952.000000
-26.469755 -12.104248 226.699997 1772816.000000
-26.009867 -12.093569 226.500000 1903888.000000
-25.641075 -12.125605 227.100006 1640976.000000
-25.036915 -12.045515 225.600006 2431012.000000
-24.438536 -11.965425 224.100006 4602960.000000
-23.878075 -11.901354 222.899994 5920368.000000
-23.437958 -11.896014 222.800003 5724024.000000
-22.936264 -11.858639 222.100006 5526389.000000
-22.498074 -11.853299 222.000000 5853292.000000
-22.040388 -11.837281 221.699997 4864338.000000
-21.622852 -11.842621 221.800003 3284787.000000
-21.281380 -11.890675 222.699997 2100766.000000
-21.133068 -12.050855 225.699997 1639443.000000
-21.028217 -12.243070 229.300003 1310730.000000
-21.475094 -12.771663 239.199997 1507849.000000
-25.213383 -15.323860 287.000000 1836553.000000
-24.660246 -15.323860 287.000000 1639172.000000
-24.098707 -15.318521 286.899994 1573893.000000
-23.521143 -15.302503 286.600006 1573894.000000
-22.856577 -15.227752 285.200012 1574151.000000
-22.259979 -15.195717 284.600006 1509130.000000
-21.673321 -15.169020 284.100006 1443596.000000
-21.006796 -15.083591 282.500000 1509137.000000
-20.411629 -15.046216 281.799988 1378574.000000
-19.734550 -14.944768 279.899994 1510155.000000
-19.078514 -14.853999 278.200012 1576201.000000
-18.509012 -14.827303 277.700012 1772812.000000
-17.934963 -14.795267 277.100006 1904398.000000
-17.325548 -14.731195 275.899994 2101267.000000
-16.775543 -14.715178 275.600006 2167060.000000
-16.232588 -14.704498 275.399994 2429464.000000
-15.701806 -14.704498 275.399994 2429464.000000
-15.148991 -14.683142 275.000000 2692123.000000
-14.608348 -14.672462 274.799988 2691610.000000
-14.017244 -14.608391 273.600006 2691094.000000
-13.485002 -14.603051 273.500000 2624786.000000
-12.962620 -14.608391 273.600006 2558993.000000
-12.430763 -14.603051 273.500000 2624271.000000
-11.899292 -14.597713 273.399994 2624269.000000
-11.322450 -14.533640 272.200012 2493455.000000
-10.758167 -14.480247 271.200012 2099725.000000
-10.182643 -14.405497 269.799988 2165777.000000
-9.637585 -14.368121 269.100006 2231057.000000
-9.071505 -14.293370 267.700012 2099984.000000
-8.539584 -14.266674 267.200012 1967885.000000
-8.012593 -14.245317 266.799988 1836812.000000
-7.464661 -14.181245 265.600006 1902605.000000
-6.944915 -14.165227 265.299988 1968398.000000
-6.428749 -14.154548 265.100006 1573640.000000
-5.917819 -14.154548 265.100006 1573640.000000
-5.406889 -14.154548 265.100006 1442567.000000
-4.895959 -14.154548 265.100006 1376774.000000
-4.385030 -14.154548 265.100006 1310981.000000
-3.872638 -14.149209 265.000000 1442567.000000
-3.360633 -14.143869 264.899994 1705739.000000
-2.850088 -14.143869 264.899994 1968913.000000
-2.339544 -14.143869 264.899994 2626589.000000
-1.827619 -14.133191 264.700012 2823970.000000
-1.311985 -14.074458 263.600006 3152935.000000
-0.803336 -14.063780 263.399994 3481898.000000
-0.295907 -14.074458 263.600006 3810863.000000
0.212856 -14.122512 264.500000 4140082.000000
0.720444 -14.079798 263.700012 4534840.000000
1.227278 -14.063780 263.399994 4863803.000000
1.732297 -14.042422 263.000000 5126975.000000
2.228962 -13.978351 261.799988 5258559.000000
2.729356 -13.956993 261.399994 5521731.000000
3.229444 -13.940975 261.100006 5784903.000000
3.718369 -13.887582 260.100006 6048330.000000
4.218040 -13.882243 260.000000 6179916.000000
4.710065 -13.855546 259.500000 6311502.000000
5.212210 -13.860885 259.600006 6377293.000000
5.712540 -13.860885 259.600006 6245445.000000
6.215262 -13.866225 259.700012 6245445.000000
6.723543 -13.882243 260.000000 6245446.000000
7.202414 -13.839528 259.200012 6377034.000000
7.696030 -13.828850 259.000000 6508109.000000
8.173054 -13.791473 258.299988 6507855.000000
8.633951 -13.732741 257.200012 6376270.000000
9.140306 -13.748760 257.500000 6244684.000000
9.636587 -13.748760 257.500000 6704465.000000
10.140739 -13.759438 257.700012 6704465.000000
10.682814 -13.818171 258.799988 6704207.000000
11.211845 -13.855546 259.500000 6638412.000000
11.711982 -13.855546 259.500000 6572617.000000
12.245061 -13.892920 260.200012 6441285.000000
12.849421 -14.005047 262.299988 6243905.000000
-108.518761 -25.291475 491.399994 12757689.000000
-107.571686 -25.291475 491.399994 12757687.000000
-106.646294 -25.296619 491.500000 12692148.000000
-105.849564 -25.332649 492.200012 12823216.000000
-105.305885 -25.430439 494.100006 12823214.000000
-105.029434 -25.595137 497.299988 12822956.000000
-104.112839 -25.605429 497.500000 12888747.000000
-103.216202 -25.620871 497.799988 13348781.000000
-102.133537 -25.589989 497.200012 13282988.000000
-101.154930 -25.584843 497.100006 13479854.000000
-99.914680 -25.512787 495.700012 12821669.000000
-88.438522 -22.800411 443.000000 9794680.000000
-60.380077 -15.718389 305.399994 5386551.000000
-55.308098 -14.539766 282.500000 3347484.000000
-53.968830 -14.328747 278.399994 3877173.000000
-49.516972 -13.278795 258.000000 5197151.000000
-49.190723 -13.325117 258.899994 5197928.000000
-48.766972 -13.345705 259.299988 4868194.000000
-48.397522 -13.381732 260.000000 5657197.000000
-54.657185 -15.270616 296.700012 8287889.000000
-62.160786 -17.550655 341.000000 10786991.000000
-83.219200 -23.747429 461.399994 12036538.000000
-89.378136 -25.780422 500.899994 12496311.000000
-91.201561 -26.593620 516.700012 12561327.000000
-90.677086 -26.732584 519.400024 12560551.000000
-89.745102 -26.753170 519.799988 12362911.000000
-88.333549 -26.629646 517.400024 12099227.000000
-86.576767 -26.398041 512.900024 11901337.000000
-85.571564 -26.392893 512.799988 11835290.000000
-84.566742 -26.387745 512.700012 11901085.000000
-83.546013 -26.377453 512.500000 11835805.000000
-81.801140 -26.135551 507.799988 11769752.000000
-80.551872 -26.048056 506.100006 11966614.000000
-78.978973 -25.852476 502.299988 12491927.000000
-78.399155 -25.981148 504.799988 11964810.000000
-69.757248 -23.407738 454.799988 8937817.000000
-47.132095 -16.016905 311.200012 4924701.000000
-45.560398 -15.682361 304.700012 2688515.000000
-45.209305 -15.764709 306.299988 2032129.000000
-44.648106 -15.775003 306.500000 1836038.000000
-43.942387 -15.733829 305.700012 1705485.000000
-43.097942 -15.641186 303.899994 1574673.000000
-42.526218 -15.646333 304.000000 1508879.000000
-41.954113 -15.651480 304.100006 1574157.000000
-41.368019 -15.651480 304.100006 1639436.000000
-40.755104 -15.641186 303.899994 1705481.000000
-40.103302 -15.615453 303.399994 1705478.000000
-39.427380 -15.579425 302.700012 1639940.000000
-38.805485 -15.563984 302.399994 1377798.000000
-38.386986 -15.630892 303.700012 1115655.000000
-37.801659 -15.630892 303.700012 984586.000000
-36.358536 -15.270616 296.700012 1116173.000000
-36.184734 -15.440459 300.000000 1247246.000000
-33.434544 -14.498592 281.700012 1444366.000000
-26.843391 -11.832540 229.899994 1772560.000000
-26.618486 -11.930329 231.800003 1772304.000000
-26.273354 -11.976650 232.699997 1377550.000000
-25.236677 -11.703869 227.399994 2036512.000000
-24.449440 -11.539170 224.199997 4273997.000000
-23.888788 -11.477408 223.000000 5722991.000000
-23.458998 -11.477408 223.000000 5592183.000000
-23.008554 -11.467115 222.800003 5263217.000000
-22.589283 -11.472261 222.899994 6444657.000000
-22.080153 -11.431087 222.100006 5719644.000000
-21.652098 -11.431087 222.100006 3876923.000000
-21.396051 -11.523730 223.899994 2034971.000000
-21.432695 -11.781071 228.899994 1310989.000000
-21.330845 -11.971503 232.600006 1442569.000000
-25.461273 -14.596381 283.600006 1639690.000000
-25.204599 -14.766227 286.899994 1639686.000000
-24.780540 -14.843430 288.399994 1442307.000000
-24.132307 -14.786814 287.299988 1377025.000000
-23.562178 -14.776520 287.100006 1377027.000000
-22.968775 -14.750786 286.600006 1245956.000000
-22.291264 -14.668437 285.000000 1180422.000000
-21.703836 -14.642703 284.500000 1049608.000000
-21.058847 -14.575794 283.200012 1049356.000000
-20.476818 -14.550060 282.700012 984072.000000
-19.826210 -14.472858 281.200012 1050117.000000
-19.222528 -14.426537 280.299988 1116163.000000
-18.588993 -14.354482 278.899994 1247238.000000
-18.032049 -14.339041 278.600006 1313031.000000
-17.469980 -14.318454 278.200012 1575180.000000
-16.909456 -14.297867 277.799988 1640973.000000
-16.291531 -14.225811 276.399994 1772048.000000
-15.730314 -14.200077 275.899994 1968913.000000
-15.176535 -14.179490 275.500000 2165779.000000
-14.629612 -14.164049 275.200012 2231059.000000
-14.032614 -14.097139 273.899994 2231057.000000
-13.489932 -14.081699 273.600006 2362127.000000
-12.962620 -14.081699 273.600006 2427920.000000
-12.476214 -14.128021 274.500000 2559248.000000
-11.907996 -14.081699 273.600006 2625039.000000
-11.368206 -14.066259 273.299988 2625298.000000
-10.829572 -14.050818 273.000000 2494996.000000
-10.250578 -13.978763 271.600006 2495255.000000
-9.666236 -13.891268 269.899994 2692121.000000
-9.122334 -13.855240 269.200012 2561048.000000
-8.552367 -13.772891 267.600006 2494742.000000
-8.024607 -13.752303 267.200012 2429462.000000
-7.504008 -13.742009 267.000000 2495255.000000
-6.963239 -13.690541 266.000000 2561048.000000
-6.431174 -13.649366 265.200012 1837325.000000
-5.920052 -13.649366 265.200012 1837325.000000
-5.406889 -13.644220 265.100006 1836812.000000
-4.895959 -13.644220 265.100006 1573640.000000
-4.385030 -13.644220 265.100006 1376261.000000
-3.871177 -13.633925 264.899994 1245187.000000
-3.349215 -13.587605 264.000000 1310724.000000
-2.846861 -13.618486 264.600006 1310983.000000
-2.330712 -13.582458 263.899994 1442315.000000
-1.826238 -13.613338 264.500000 1442315.000000
-1.311487 -13.561872 263.500000 1508108.000000
-0.802726 -13.546431 263.200012 1508362.000000
-0.295458 -13.546431 263.200012 1639948.000000
0.212454 -13.587605 264.000000 2034706.000000
0.718532 -13.536137 263.000000 2495257.000000
1.223084 -13.510403 262.500000 2824220.000000
1.721758 -13.453788 261.399994 3350564.000000
2.221300 -13.428054 260.899994 3613734.000000
2.712650 -13.371439 259.799988 4074285.000000
3.209654 -13.355998 259.500000 4666677.000000
3.695495 -13.304529 258.500000 5258814.000000
4.190460 -13.294236 258.299988 5719365.000000
4.688284 -13.294236 258.299988 5982535.000000
5.204179 -13.340557 259.200012 6114121.000000
5.708138 -13.350851 259.399994 5982276.000000
6.205689 -13.345705 259.299988 6113862.000000
6.682167 -13.299383 258.399994 6310987.000000
7.199635 -13.335411 259.100006 6376782.000000
7.690087 -13.319970 258.799988 6376270.000000
8.119263 -13.206739 256.600006 6244430.000000
8.586955 -13.165565 255.800003 6178639.000000
9.069312 -13.150125 255.500000 6178639.000000
9.557998 -13.144979 255.399994 6309455.000000
10.042362 -13.134685 255.199997 6375248.000000
10.579618 -13.191300 256.299988 6375502.000000
11.116793 -13.242767 257.299988 6441293.000000
11.626230 -13.258208 257.600006 6506828.000000
12.127411 -13.263355 257.700012 6506826.000000
12.687762 -13.330264 259.000000 6441031.000000
-108.496681 -24.340555 491.299988 12691894.000000
-107.571686 -24.345509 491.399994 12822965.000000
-106.667992 -24.355417 491.600006 12822962.000000
-106.129135 -24.449549 493.500000 12757422.000000
-105.860016 -24.608088 496.700012 12757420.000000
-105.050560 -24.642767 497.399994 12822954.000000
-104.008202 -24.622950 497.000000 12822953.000000
-103.174736 -24.652678 497.600006 13019817.000000
-102.195168 -24.647720 497.500000 12822438.000000
-101.154930 -24.627905 497.100006 13282477.000000
-100.096085 -24.603134 496.600006 13019050.000000
-94.188019 -23.374462 471.799988 10650504.000000
-67.220787 -16.844675 340.000000 6505289.000000
-55.327675 -14.000897 282.600006 3347742.000000
-54.647320 -13.966217 281.899994 3350832.000000
-49.421009 -12.757364 257.500000 5131104.000000
-49.133724 -12.811861 258.600006 5461102.000000
-48.823395 -12.861404 259.600006 5197161.000000
-48.397522 -12.881222 260.000000 5394027.000000
-50.936001 -13.698684 276.500000 7235203.000000
-56.692097 -15.407923 311.000000 9734561.000000
-79.954651 -21.962484 443.299988 11839161.000000
-87.558090 -24.310827 490.700012 12693692.000000
-91.060356 -25.559317 515.900024 12626865.000000
-90.537422 -25.693083 518.599976 12560808.000000
-89.727844 -25.747581 519.700012 12362912.000000
-88.418915 -25.658403 517.900024 12098970.000000
-86.576767 -25.410686 512.900024 11901079.000000
-85.588249 -25.410686 512.900024 11835032.000000
-84.583237 -25.405733 512.799988 11900571.000000
